ply
format ascii 1.0
element vertex 1051
property float x
property float y
property float z
property uchar red
property uchar green
property uchar blue
end_header
-14.057237 -13.995310 -459.709625 116 137 53 
-14.119163 -13.995310 -459.709625 123 134 46 
-14.181088 -13.995310 -459.709625 125 136 52 
-14.243014 -13.995310 -459.709625 124 135 54 
-14.300005 -13.990480 -459.550995 125 136 51 
-14.359432 -13.988068 -459.471710 123 137 50 
-14.413867 -13.980832 -459.234070 123 132 51 
-14.473233 -13.978422 -459.154907 120 135 60 
-14.532579 -13.976013 -459.075775 116 141 32 
-14.591906 -13.973604 -458.996643 124 139 7 
-14.652473 -13.972401 -458.957123 130 136 49 
-14.707962 -13.966384 -458.759491 120 133 76 
-14.767217 -13.963979 -458.680481 114 130 45 
-14.826451 -13.961575 -458.601501 120 134 26 
-14.886947 -13.960373 -458.562042 123 138 48 
-14.946145 -13.957970 -458.483093 123 138 66 
-15.007906 -13.957970 -458.483093 125 136 37 
-15.067073 -13.955567 -458.404205 120 139 28 
-15.128823 -13.955567 -458.404205 118 144 11 
-15.189267 -13.954367 -458.364746 119 138 0 
-15.251012 -13.954367 -458.364746 119 129 26 
-15.311440 -13.953166 -458.325317 117 132 55 
-15.366569 -13.947166 -458.128235 114 136 39 
-15.425629 -13.944768 -458.049469 120 134 40 
-15.483337 -13.941172 -457.931335 124 135 29 
-15.541016 -13.937577 -457.813263 121 139 13 
-15.601346 -13.936380 -457.773926 119 140 35 
-15.661665 -13.935183 -457.734589 122 136 48 
-15.719274 -13.931591 -457.616638 124 136 44 
-15.779562 -13.930394 -457.577332 124 138 43 
-15.837120 -13.926805 -457.459442 126 136 47 
-15.898743 -13.926805 -457.459442 122 135 58 
-15.957625 -13.924415 -457.380890 119 136 35 
-16.019238 -13.924415 -457.380890 118 131 13 
-16.079470 -13.923219 -457.341614 116 125 29 
-16.139690 -13.922024 -457.302368 119 127 34 
-16.198511 -13.919634 -457.223846 122 129 40 
-16.258707 -13.918439 -457.184631 118 133 44 
-16.317493 -13.916051 -457.106171 114 135 52 
-16.373449 -13.911276 -456.949310 117 135 69 
-16.426548 -13.904119 -456.714264 119 137 45 
-16.488071 -13.904119 -456.714264 117 134 19 
-16.548176 -13.902927 -456.675110 115 130 40 
-16.608269 -13.901736 -456.635956 117 127 49 
-16.669781 -13.901736 -456.635956 109 126 58 
-16.731293 -13.901736 -456.635956 135 139 59 
-16.791367 -13.900544 -456.596832 162 163 85 
-16.852873 -13.900544 -456.596832 150 163 142 
-16.914379 -13.900544 -456.596832 154 142 72 
-16.975885 -13.900544 -456.596832 133 129 7 
-17.037394 -13.900544 -456.596832 108 127 28 
-17.100365 -13.901736 -456.635956 115 129 20 
-17.163349 -13.902927 -456.675110 113 130 33 
-18.030157 -14.297598 -469.639008 106 130 14 
-18.091825 -14.296337 -469.597595 108 130 11 
-18.155083 -14.296337 -469.597595 109 129 9 
-18.218342 -14.296337 -469.597595 111 128 0 
-18.281599 -14.296337 -469.597595 114 126 11 
-18.343241 -14.295077 -469.556213 113 129 28 
-18.406494 -14.295077 -469.556213 112 132 11 
-18.469746 -14.295077 -469.556213 113 131 0 
-18.532999 -14.295077 -469.556213 113 130 0 
-18.596251 -14.295077 -469.556213 114 129 0 
-18.659504 -14.295077 -469.556213 115 128 5 
-18.721106 -14.293818 -469.514832 113 131 30 
-18.784353 -14.293818 -469.514832 110 132 14 
-18.845940 -14.292558 -469.473450 112 132 0 
-18.905848 -14.290039 -469.390717 114 134 6 
-18.967407 -14.288780 -469.349365 113 133 21 
-19.023928 -14.283746 -469.183990 111 135 9 
-19.083769 -14.281231 -469.101379 112 133 0 
-19.145273 -14.279973 -469.060059 114 131 0 
-19.208460 -14.279973 -469.060059 115 133 0 
-19.271645 -14.279973 -469.060059 117 135 0 
-19.334831 -14.279973 -469.060059 116 138 0 
-19.399725 -14.281231 -469.101379 115 139 0 
-19.464630 -14.282488 -469.142670 116 139 9 
-19.536428 -14.288780 -469.349365 117 139 4 
-19.599653 -14.288780 -469.349365 117 139 0 
-19.662878 -14.288780 -469.349365 116 138 2 
-19.726103 -14.288780 -469.349365 118 136 0 
-19.784100 -14.285005 -469.225342 121 138 16 
-19.845558 -14.283746 -469.183990 121 142 67 
-19.907007 -14.282488 -469.142670 125 142 35 
-19.968447 -14.281231 -469.101379 123 140 0 
-20.029873 -14.279973 -469.060059 121 143 5 
-20.091290 -14.278716 -469.018768 120 143 12 
-20.154470 -14.278716 -469.018768 115 138 7 
-20.214090 -14.276202 -468.936188 117 139 0 
-20.277260 -14.276202 -468.936188 119 143 0 
-20.338638 -14.274945 -468.894928 120 144 0 
-20.400007 -14.273689 -468.853638 124 144 0 
-20.461363 -14.272432 -468.812378 123 148 0 
-20.519098 -14.268665 -468.688660 122 149 0 
-20.578613 -14.266155 -468.606201 121 144 0 
-20.632664 -14.259883 -468.400177 118 143 0 
-20.692122 -14.257376 -468.317810 118 142 0 
-20.753382 -14.256123 -468.276642 116 142 0 
-20.816463 -14.256123 -468.276642 118 145 0 
-20.879543 -14.256123 -468.276642 126 148 1 
-20.942623 -14.256123 -468.276642 122 147 0 
-21.003857 -14.254869 -468.235504 115 143 7 
-21.066931 -14.254869 -468.235504 118 141 44 
-21.130007 -14.254869 -468.235504 124 141 27 
-21.191217 -14.253617 -468.194336 123 141 0 
-21.254288 -14.253617 -468.194336 125 144 1 
-21.315483 -14.252364 -468.153198 126 146 0 
-21.376667 -14.251112 -468.112061 127 147 0 
-21.439726 -14.251112 -468.112061 128 150 0 
-21.500895 -14.249860 -468.070923 130 151 0 
-21.563948 -14.249860 -468.070923 130 149 0 
-21.625099 -14.248608 -468.029785 134 147 0 
-21.686241 -14.247356 -467.988678 132 148 0 
-21.745462 -14.244853 -467.906464 124 149 3 
-21.806576 -14.243602 -467.865387 127 149 20 
-21.869602 -14.243602 -467.865387 131 148 14 
-21.932627 -14.243602 -467.865387 132 151 0 
-21.995651 -14.243602 -467.865387 137 155 3 
-22.058676 -14.243602 -467.865387 135 155 17 
-22.121700 -14.243602 -467.865387 132 152 13 
-22.182777 -14.242352 -467.824280 133 152 0 
-22.243843 -14.241100 -467.783203 135 155 5 
-22.304897 -14.239850 -467.742126 135 158 30 
-22.365942 -14.238600 -467.701080 136 157 30 
-22.428946 -14.238600 -467.701080 137 155 38 
-22.491947 -14.238600 -467.701080 142 160 43 
-22.552971 -14.237350 -467.660004 142 160 81 
-22.615967 -14.237350 -467.660004 146 163 75 
-22.676973 -14.236100 -467.618958 146 166 64 
-22.739965 -14.236100 -467.618958 156 168 67 
-22.802958 -14.236100 -467.618958 154 167 83 
-22.865948 -14.236100 -467.618958 146 170 80 
-22.928940 -14.236100 -467.618958 148 172 69 
-22.991932 -14.236100 -467.618958 154 174 73 
-23.054924 -14.236100 -467.618958 155 175 94 
-23.117914 -14.236100 -467.618958 171 178 95 
-23.180906 -14.236100 -467.618958 169 186 112 
-23.243898 -14.236100 -467.618958 168 189 115 
-23.306890 -14.236100 -467.618958 170 191 140 
-23.369881 -14.236100 -467.618958 189 200 147 
-0.064123 -14.427670 -476.017792 213 212 136 
-0.128212 -14.423803 -475.890228 168 188 136 
-0.192283 -14.421227 -475.805206 173 175 105 
-0.256309 -14.417363 -475.677765 161 174 109 
-0.320357 -14.416076 -475.635284 164 174 101 
-0.384394 -14.414789 -475.592804 165 173 101 
-0.448420 -14.413503 -475.550354 162 173 97 
-0.512160 -14.404501 -475.253387 155 172 96 
-0.575923 -14.398079 -475.041473 157 172 95 
-0.639800 -14.395511 -474.956787 159 171 93 
-0.703028 -14.380126 -474.449158 159 168 89 
-0.766735 -14.376285 -474.322418 158 167 88 
-0.830482 -14.373725 -474.237976 160 167 83 
-0.893888 -14.366052 -473.984802 163 168 88 
-0.957396 -14.360940 -473.816162 163 169 97 
-1.020950 -14.357109 -473.689758 163 171 95 
-1.084663 -14.355833 -473.647644 164 172 98 
-1.148365 -14.354557 -473.605530 166 172 92 
-1.212163 -14.354557 -473.605530 166 170 78 
-1.275961 -14.354557 -473.605530 165 169 84 
-1.340116 -14.358386 -473.731903 165 170 92 
-1.404056 -14.359663 -473.774017 170 166 86 
-1.468268 -14.363496 -473.900482 161 161 74 
-1.532924 -14.371166 -474.153564 140 159 77 
-1.597223 -14.375005 -474.280182 148 158 82 
-1.661703 -14.380126 -474.449158 159 159 75 
-1.725923 -14.382688 -474.533691 154 159 56 
-1.791441 -14.395511 -474.956787 146 154 65 
-1.856249 -14.401932 -475.168610 145 152 82 
-1.920943 -14.407072 -475.338196 141 153 73 
-1.985683 -14.412216 -475.507904 139 151 65 
-2.050286 -14.416076 -475.635284 131 145 54 
-2.114358 -14.416076 -475.635284 130 137 19 
-2.178429 -14.416076 -475.635284 123 137 26 
-2.242301 -14.414789 -475.592804 125 140 24 
-2.306366 -14.414789 -475.592804 125 138 28 
-2.384911 -14.502834 -478.497711 124 138 35 
-2.450248 -14.508047 -478.669708 120 142 39 
-2.514954 -14.509351 -478.712708 124 145 60 
-2.579904 -14.511959 -478.798767 132 144 53 
-2.644401 -14.511959 -478.798767 131 143 43 
-2.709142 -14.513263 -478.841827 135 145 45 
-2.773646 -14.513263 -478.841827 135 149 46 
-2.838149 -14.513263 -478.841827 134 151 50 
-2.902392 -14.511959 -478.798767 137 151 64 
-2.966889 -14.511959 -478.798767 147 150 60 
-3.031115 -14.510654 -478.755737 144 154 65 
-3.095328 -14.509351 -478.712708 139 155 55 
-3.159246 -14.506743 -478.626709 139 148 10 
-3.223142 -14.504137 -478.540710 132 151 29 
-3.287014 -14.501532 -478.454742 134 156 72 
-3.351164 -14.500229 -478.411774 137 156 65 
-3.415303 -14.498927 -478.368805 136 156 69 
-3.479743 -14.498927 -478.368805 134 152 62 
-3.544501 -14.500229 -478.411774 133 144 40 
-3.609270 -14.501532 -478.454742 129 141 38 
-3.674381 -14.504137 -478.540710 127 130 7 
-3.739516 -14.506743 -478.626709 110 121 20 
-3.805016 -14.510654 -478.755737 117 125 62 
-3.869508 -14.510654 -478.755737 137 131 56 
-3.934353 -14.511959 -478.798767 134 136 56 
-3.999570 -14.514568 -478.884857 131 140 57 
-4.064445 -14.515873 -478.927917 133 145 69 
-4.129331 -14.517178 -478.970978 142 146 67 
-4.193851 -14.517178 -478.970978 141 144 59 
-4.258755 -14.518483 -479.014038 140 149 63 
-4.323282 -14.518483 -479.014038 143 154 83 
-4.387808 -14.518483 -479.014038 165 157 81 
-4.452335 -14.518483 -479.014038 160 155 82 
-4.516861 -14.518483 -479.014038 151 155 80 
-4.581800 -14.519789 -479.057129 152 157 68 
-4.646332 -14.519789 -479.057129 149 155 68 
-4.710865 -14.519789 -479.057129 148 150 56 
-4.775397 -14.519789 -479.057129 143 146 59 
-4.839930 -14.519789 -479.057129 145 147 75 
-4.904462 -14.519789 -479.057129 151 147 71 
-4.968995 -14.519789 -479.057129 149 145 51 
-5.033527 -14.519789 -479.057129 143 145 52 
-5.098518 -14.521094 -479.100189 142 140 42 
-5.163056 -14.521094 -479.100189 128 132 44 
-5.228065 -14.522401 -479.143311 129 127 53 
-5.293085 -14.523707 -479.186401 128 125 49 
-5.357634 -14.523707 -479.186401 127 122 21 
-5.422184 -14.523707 -479.186401 111 123 24 
-5.486240 -14.522401 -479.143311 113 119 37 
-5.550784 -14.522401 -479.143311 116 112 36 
-5.615833 -14.523707 -479.186401 115 109 37 
-5.681406 -14.526320 -479.272614 109 103 35 
-5.745967 -14.526320 -479.272614 109 99 13 
-5.811051 -14.527628 -479.315735 109 99 16 
-5.875618 -14.527628 -479.315735 109 101 23 
-5.940186 -14.527628 -479.315735 108 101 23 
-6.003132 -14.523707 -479.186401 108 101 26 
-6.066045 -14.519789 -479.057129 103 100 26 
-6.130578 -14.519789 -479.057129 104 98 28 
-6.195110 -14.519789 -479.057129 113 94 29 
-6.259642 -14.519789 -479.057129 113 89 43 
-6.323606 -14.518483 -479.014038 117 92 44 
-6.388133 -14.518483 -479.014038 118 102 79 
-6.452659 -14.518483 -479.014038 135 108 76 
-6.516600 -14.517178 -478.970978 135 110 52 
-6.579346 -14.513263 -478.841827 141 108 55 
-6.641461 -14.508047 -478.669708 141 115 74 
-6.705339 -14.506743 -478.626709 143 124 74 
-6.768597 -14.504137 -478.540710 143 128 90 
-6.833060 -14.504137 -478.540710 155 138 89 
-6.896284 -14.501532 -478.454742 154 136 67 
-6.960110 -14.500229 -478.411774 147 128 67 
-7.023925 -14.498927 -478.368805 147 126 59 
-7.088365 -14.498927 -478.368805 144 127 59 
-7.152162 -14.497625 -478.325867 144 128 69 
-7.216596 -14.497625 -478.325867 148 135 69 
-7.281030 -14.497625 -478.325867 148 133 53 
-7.345463 -14.497625 -478.325867 130 121 53 
-7.409897 -14.497625 -478.325867 130 116 43 
-7.473660 -14.496324 -478.282928 119 117 43 
-7.537412 -14.495022 -478.239990 119 126 62 
-7.601151 -14.493721 -478.197052 133 134 62 
-7.664880 -14.492420 -478.154144 133 141 69 
-7.725823 -14.485919 -477.939636 150 150 69 
-7.788109 -14.482021 -477.811035 150 156 81 
-7.851065 -14.479424 -477.725342 157 166 81 
-7.913999 -14.476827 -477.639648 157 169 96 
-7.976910 -14.474232 -477.554016 163 168 97 
-8.040519 -14.472934 -477.511230 163 171 110 
-8.100487 -14.465155 -477.254547 169 174 111 
-8.159658 -14.456089 -476.955414 169 177 102 
-8.220228 -14.449620 -476.742004 172 178 102 
-8.283708 -14.448327 -476.699341 172 177 102 
-8.345682 -14.444449 -476.571411 170 173 101 
-8.408375 -14.441865 -476.486145 170 175 116 
-8.471045 -14.439282 -476.400940 173 178 116 
-8.533693 -14.436700 -476.315735 173 180 121 
-8.597857 -14.436700 -476.315735 175 184 122 
-8.661245 -14.435410 -476.273163 175 182 111 
-8.724623 -14.434119 -476.230560 178 180 111 
-8.787989 -14.432829 -476.187988 179 179 102 
-8.851343 -14.431539 -476.145447 177 179 102 
-8.913890 -14.428959 -476.060333 176 179 95 
-8.978019 -14.428959 -476.060333 174 180 95 
-9.041340 -14.427670 -476.017792 174 181 91 
-9.104650 -14.426381 -475.975250 179 181 91 
-9.165491 -14.421227 -475.805206 180 182 92 
-9.227113 -14.417363 -475.677765 176 182 91 
-9.289531 -14.414789 -475.592804 176 182 100 
-9.351092 -14.410930 -475.465485 179 180 100 
-9.413460 -14.408358 -475.380615 179 179 121 
-9.476651 -14.407072 -475.338196 182 184 125 
-9.538980 -14.404501 -475.253387 183 184 100 
-9.600431 -14.400647 -475.126221 179 184 98 
-9.663572 -14.399363 -475.083832 179 185 89 
-9.725835 -14.396794 -474.999115 176 184 86 
-9.788947 -14.395511 -474.956787 176 184 100 
-9.852927 -14.395511 -474.956787 172 181 104 
-9.916907 -14.395511 -474.956787 171 179 81 
-9.980887 -14.395511 -474.956787 167 179 80 
-10.045763 -14.396794 -474.999115 167 176 71 
-10.108848 -14.395511 -474.956787 165 176 71 
-10.172828 -14.395511 -474.956787 165 173 61 
-10.236808 -14.395511 -474.956787 164 171 58 
-10.300788 -14.395511 -474.956787 164 171 72 
-10.364768 -14.395511 -474.956787 159 175 73 
-10.428748 -14.395511 -474.956787 157 175 76 
-10.492728 -14.395511 -474.956787 163 174 78 
-10.556708 -14.395511 -474.956787 165 173 69 
-10.620688 -14.395511 -474.956787 159 170 68 
-10.684669 -14.395511 -474.956787 159 169 64 
-10.748649 -14.395511 -474.956787 155 170 62 
-10.812629 -14.395511 -474.956787 154 170 72 
-10.876609 -14.395511 -474.956787 158 170 74 
-10.940588 -14.395511 -474.956787 158 168 71 
-11.004568 -14.395511 -474.956787 158 168 72 
-11.068548 -14.395511 -474.956787 158 169 64 
-11.133521 -14.396794 -474.999115 154 168 59 
-11.197507 -14.396794 -474.999115 153 167 84 
-11.262497 -14.398079 -475.041473 156 169 90 
-11.900290 -14.395511 -474.956787 144 158 1 
-11.955742 -14.385251 -474.618256 145 155 37 
-12.007908 -14.371166 -474.153564 140 158 52 
-12.512646 -14.076727 -464.438995 161 167 46 
-12.574113 -14.075500 -464.398499 167 174 83 
-12.635569 -14.074272 -464.358002 168 181 90 
-12.698121 -14.074272 -464.358002 169 185 121 
-12.756226 -14.069366 -464.196167 172 186 135 
-12.815406 -14.065690 -464.074860 178 179 136 
-12.877920 -14.065690 -464.074860 155 169 146 
-12.938180 -14.063239 -463.994019 146 167 115 
-12.999552 -14.062015 -463.953583 150 168 104 
-13.051819 -14.051001 -463.590210 149 160 110 
-13.114267 -14.051001 -463.590210 150 155 113 
-13.349835 -13.970758 -460.942719 139 145 82 
-13.411928 -13.970758 -460.942719 130 140 76 
-13.474020 -13.970758 -460.942719 127 142 74 
-13.534942 -13.969549 -460.902863 125 146 71 
-13.597028 -13.969549 -460.902863 123 142 71 
-13.708156 -13.956267 -460.464630 126 141 60 
-13.748792 -13.934587 -459.749298 116 136 50 
-13.805958 -13.929778 -459.590637 109 138 68 
-13.867867 -13.929778 -459.590637 120 143 78 
-13.929778 -13.929778 -459.590637 125 140 63 
-13.991688 -13.929778 -459.590637 124 139 61 
-14.051173 -13.927375 -459.511353 126 137 51 
-14.113072 -13.927375 -459.511353 124 136 43 
-14.174973 -13.927375 -459.511353 125 137 50 
-14.235643 -13.926173 -459.471710 116 134 52 
-14.297538 -13.926173 -459.471710 108 137 51 
-14.352005 -13.918970 -459.234070 119 139 51 
-14.411382 -13.916571 -459.154907 123 137 51 
-14.470739 -13.914172 -459.075775 120 142 55 
-14.531327 -13.912973 -459.036194 120 142 38 
-14.590649 -13.910576 -458.957123 118 137 21 
-14.648687 -13.906981 -458.838501 116 136 47 
-14.705429 -13.902191 -458.680481 119 133 65 
-14.764674 -13.899798 -458.601501 120 134 43 
-14.825175 -13.898602 -458.562042 123 140 28 
-14.884384 -13.896209 -458.483093 124 138 47 
-14.944859 -13.895013 -458.443634 126 137 61 
-15.005322 -13.893818 -458.404205 129 137 37 
-15.065777 -13.892622 -458.364746 125 138 27 
-15.124919 -13.890232 -458.285889 125 140 21 
-15.184041 -13.887842 -458.207062 117 134 6 
-15.241832 -13.884259 -458.088837 109 130 30 
-15.302223 -13.883065 -458.049469 116 135 48 
-15.361284 -13.880678 -457.970703 119 135 37 
-15.420325 -13.878292 -457.891968 115 132 37 
-15.479345 -13.875907 -457.813263 113 134 28 
-15.539680 -13.874715 -457.773926 116 135 13 
-15.600005 -13.873523 -457.734589 117 137 35 
-15.658975 -13.871139 -457.655945 120 138 53 
-15.715223 -13.866373 -457.498718 124 136 45 
-15.775496 -13.865183 -457.459442 124 135 46 
-15.834400 -13.862802 -457.380890 125 133 40 
-15.896012 -13.862802 -457.380890 122 132 36 
-15.956255 -13.861611 -457.341614 121 135 33 
-16.017862 -13.861611 -457.341614 119 132 27 
-16.078089 -13.860422 -457.302368 117 130 37 
-16.136921 -13.858043 -457.223846 117 134 45 
-16.197123 -13.856853 -457.184631 118 134 40 
-16.257313 -13.855664 -457.145386 116 134 33 
-16.316093 -13.853287 -457.066925 113 135 48 
-16.370640 -13.847346 -456.870941 116 137 68 
-16.426548 -13.842597 -456.714264 120 135 48 
-16.486658 -13.841411 -456.675110 114 132 30 
-16.546757 -13.840224 -456.635956 110 126 42 
-16.608269 -13.840224 -456.635956 111 120 39 
-16.669781 -13.840224 -456.635956 94 121 63 
-16.729858 -13.839038 -456.596832 136 134 87 
-16.791367 -13.839038 -456.596832 187 158 89 
-16.852873 -13.839038 -456.596832 158 159 120 
-16.914379 -13.839038 -456.596832 153 137 67 
-16.974432 -13.837852 -456.557678 135 125 14 
-17.035933 -13.837852 -456.557678 111 126 25 
-17.098900 -13.839038 -456.596832 115 129 14 
-17.163349 -13.841411 -456.675110 112 129 19 
-18.030157 -14.234334 -469.639008 108 129 11 
-18.091825 -14.233079 -469.597595 108 128 6 
-18.155083 -14.233079 -469.597595 105 127 6 
-18.216736 -14.231825 -469.556213 109 127 1 
-18.279989 -14.231825 -469.556213 114 127 5 
-18.341623 -14.230571 -469.514832 114 129 10 
-18.404871 -14.230571 -469.514832 117 131 6 
-18.468119 -14.230571 -469.514832 116 131 0 
-18.532999 -14.231825 -469.556213 116 129 10 
-18.596251 -14.231825 -469.556213 114 132 28 
-18.657860 -14.230571 -469.514832 112 133 16 
-18.721106 -14.230571 -469.514832 110 132 5 
-18.784353 -14.230571 -469.514832 105 134 7 
-18.845940 -14.229317 -469.473450 107 133 0 
-18.905848 -14.226809 -469.390717 107 131 13 
-18.967407 -14.225555 -469.349365 107 132 43 
-19.022251 -14.219292 -469.142670 107 134 27 
-19.083769 -14.218040 -469.101379 110 131 12 
-19.145273 -14.216787 -469.060059 116 133 11 
-19.208460 -14.216787 -469.060059 115 135 0 
-19.271645 -14.216787 -469.060059 116 136 7 
-19.334831 -14.216787 -469.060059 115 140 25 
-19.399725 -14.218040 -469.101379 115 139 14 
-19.464630 -14.219292 -469.142670 116 138 0 
-19.536428 -14.225555 -469.349365 116 138 2 
-19.599653 -14.225555 -469.349365 117 136 1 
-19.662878 -14.225555 -469.349365 116 136 1 
-19.720890 -14.221796 -469.225342 118 134 0 
-19.780615 -14.219292 -469.142670 120 138 3 
-19.842064 -14.218040 -469.101379 122 142 10 
-19.905254 -14.218040 -469.101379 128 139 7 
-19.966688 -14.216787 -469.060059 126 137 4 
-20.028111 -14.215535 -469.018768 126 139 4 
-20.091290 -14.215535 -469.018768 122 141 1 
-20.154470 -14.215535 -469.018768 112 142 2 
-20.214090 -14.213033 -468.936188 116 141 0 
-20.277260 -14.213033 -468.936188 118 141 3 
-20.338638 -14.211782 -468.894928 120 143 12 
-20.400007 -14.210531 -468.853638 125 144 7 
-20.459562 -14.208030 -468.771149 123 149 0 
-20.519098 -14.205530 -468.688660 122 146 0 
-20.578613 -14.203031 -468.606201 121 141 0 
-20.632664 -14.196787 -468.400177 119 143 0 
-20.690302 -14.193043 -468.276642 118 142 0 
-20.753382 -14.193043 -468.276642 113 143 0 
-20.816463 -14.193043 -468.276642 116 144 0 
-20.879543 -14.193043 -468.276642 125 146 0 
-20.940783 -14.191795 -468.235504 122 146 0 
-21.003857 -14.191795 -468.235504 113 143 1 
-21.066931 -14.191795 -468.235504 117 141 2 
-21.128149 -14.190548 -468.194336 124 142 2 
-21.191217 -14.190548 -468.194336 123 142 3 
-21.254288 -14.190548 -468.194336 125 146 3 
-21.317356 -14.190548 -468.194336 125 147 0 
-21.378546 -14.189301 -468.153198 127 144 3 
-21.439726 -14.188054 -468.112061 128 147 16 
-21.500895 -14.186808 -468.070923 131 149 11 
-21.563948 -14.186808 -468.070923 131 147 0 
-21.625099 -14.185561 -468.029785 134 148 1 
-21.682432 -14.181823 -467.906464 132 149 0 
-21.743551 -14.180577 -467.865387 124 147 0 
-21.806576 -14.180577 -467.865387 126 147 1 
-21.869602 -14.180577 -467.865387 131 148 0 
-21.932627 -14.180577 -467.865387 131 150 0 
-21.995651 -14.180577 -467.865387 137 149 3 
-22.058676 -14.180577 -467.865387 135 152 26 
-22.119759 -14.179332 -467.824280 131 154 19 
-22.180830 -14.178087 -467.783203 133 154 0 
-22.241890 -14.176842 -467.742126 135 156 2 
-22.302940 -14.175597 -467.701080 135 159 4 
-22.365942 -14.175597 -467.701080 136 155 8 
-22.426975 -14.174353 -467.660004 137 153 25 
-22.489973 -14.174353 -467.660004 142 154 28 
-22.550991 -14.173109 -467.618958 142 155 60 
-22.613981 -14.173109 -467.618958 146 160 55 
-22.676973 -14.173109 -467.618958 146 162 49 
-22.739965 -14.173109 -467.618958 155 165 49 
-22.800955 -14.171865 -467.577911 153 165 45 
-22.863941 -14.171865 -467.577911 148 163 50 
-22.926928 -14.171865 -467.577911 149 165 83 
-22.989914 -14.171865 -467.577911 154 170 79 
-23.054924 -14.173109 -467.618958 155 172 74 
-23.117914 -14.173109 -467.618958 169 175 76 
-23.180906 -14.173109 -467.618958 168 181 91 
-23.243898 -14.173109 -467.618958 169 184 89 
-23.306890 -14.173109 -467.618958 171 185 82 
-23.369881 -14.173109 -467.618958 189 187 85 
-23.432873 -14.173109 -467.618958 188 185 100 
-23.495865 -14.173109 -467.618958 194 190 104 
-0.128246 -14.363547 -476.017792 169 193 155 
-0.192317 -14.359697 -475.890228 175 179 94 
-0.256354 -14.355850 -475.762726 164 175 108 
-0.320386 -14.353286 -475.677765 165 175 108 
-0.384429 -14.352005 -475.635284 163 174 104 
-0.448460 -14.350723 -475.592804 162 173 97 
-0.512297 -14.344320 -475.380615 159 174 94 
-0.575975 -14.335365 -475.083832 160 172 84 
-0.639858 -14.332809 -474.999115 161 175 84 
-0.703091 -14.317490 -474.491425 160 172 74 
-0.766872 -14.314939 -474.406921 157 168 81 
-0.830630 -14.312390 -474.322418 158 169 94 
-0.894365 -14.309842 -474.237976 159 168 92 
-0.957737 -14.302202 -473.984802 160 170 97 
-1.021222 -14.297114 -473.816162 163 170 93 
-1.085049 -14.297114 -473.816162 162 171 82 
-1.148773 -14.295842 -473.774017 161 173 89 
-1.212594 -14.295842 -473.774017 161 170 100 
-1.276415 -14.295842 -473.774017 160 167 98 
-1.340235 -14.295842 -473.774017 161 167 107 
-1.404431 -14.299658 -473.900482 164 167 95 
-1.469053 -14.307295 -474.153564 159 164 70 
-1.533334 -14.311116 -474.280182 147 160 73 
-1.597365 -14.312390 -474.322418 150 157 70 
-1.661703 -14.316215 -474.449158 152 156 68 
-1.725923 -14.318765 -474.533691 150 155 57 
-1.791601 -14.332809 -474.999115 147 150 65 
-1.856415 -14.339202 -475.210999 146 150 84 
-1.921286 -14.345600 -475.423035 145 153 73 
-1.986215 -14.352005 -475.635284 141 151 65 
-2.050653 -14.354568 -475.720245 130 145 53 
-2.114735 -14.354568 -475.720245 130 137 1 
-2.178818 -14.354568 -475.720245 122 135 19 
-2.242701 -14.353286 -475.677765 123 136 44 
-2.307808 -14.359697 -475.890228 121 134 44 
-2.384911 -14.438377 -478.497711 123 138 61 
-2.449808 -14.440971 -478.583710 129 145 56 
-2.514276 -14.440971 -478.583710 128 145 50 
-2.579440 -14.444864 -478.712708 127 141 53 
-2.644164 -14.446163 -478.755737 129 141 64 
-2.708899 -14.447461 -478.798767 135 145 60 
-2.773396 -14.447461 -478.798767 134 148 45 
-2.837894 -14.447461 -478.798767 134 150 54 
-2.902131 -14.446163 -478.755737 135 149 81 
-2.966623 -14.446163 -478.755737 141 147 73 
-3.030570 -14.443566 -478.669708 137 149 74 
-3.094772 -14.442269 -478.626709 126 152 59 
-3.158962 -14.440971 -478.583710 130 152 0 
-3.222852 -14.438377 -478.497711 136 151 15 
-3.286719 -14.435783 -478.411774 135 152 71 
-3.350863 -14.434487 -478.368805 137 153 63 
-3.415303 -14.434487 -478.368805 136 150 68 
-3.479743 -14.434487 -478.368805 138 149 60 
-3.544501 -14.435783 -478.411774 135 147 33 
-3.609270 -14.437080 -478.454742 127 142 31 
-3.674381 -14.439674 -478.540710 125 134 0 
-3.739516 -14.442269 -478.626709 104 121 12 
-3.805016 -14.446163 -478.755737 111 116 68 
-3.869508 -14.446163 -478.755737 131 125 60 
-3.934353 -14.447461 -478.798767 130 134 57 
-3.999570 -14.450059 -478.884857 138 138 59 
-4.064445 -14.451358 -478.927917 137 142 74 
-4.129331 -14.452657 -478.970978 137 144 71 
-4.194229 -14.453957 -479.014038 139 145 61 
-4.258755 -14.453957 -479.014038 144 149 65 
-4.323282 -14.453957 -479.014038 146 153 82 
-4.388203 -14.455256 -479.057129 160 156 80 
-4.452335 -14.453957 -479.014038 158 156 84 
-4.517268 -14.455256 -479.057129 156 156 81 
-4.581800 -14.455256 -479.057129 155 156 66 
-4.646332 -14.455256 -479.057129 149 154 66 
-4.710865 -14.455256 -479.057129 148 150 54 
-4.775397 -14.455256 -479.057129 139 145 57 
-4.839930 -14.455256 -479.057129 139 143 76 
-4.904462 -14.455256 -479.057129 136 144 71 
-4.968995 -14.455256 -479.057129 137 142 51 
-5.033979 -14.456556 -479.100189 146 142 52 
-5.098518 -14.456556 -479.100189 143 134 42 
-5.163056 -14.456556 -479.100189 126 127 44 
-5.228065 -14.457857 -479.143311 127 125 54 
-5.292608 -14.457857 -479.143311 124 123 50 
-5.357152 -14.457857 -479.143311 124 119 21 
-5.421696 -14.457857 -479.143311 120 120 24 
-5.486240 -14.457857 -479.143311 119 116 37 
-5.550784 -14.457857 -479.143311 112 109 36 
-5.616339 -14.460458 -479.229492 112 104 36 
-5.681406 -14.461760 -479.272614 107 101 34 
-5.746484 -14.463060 -479.315735 107 100 14 
-5.811051 -14.463060 -479.315735 101 100 16 
-5.875618 -14.463060 -479.315735 102 94 23 
-5.940186 -14.463060 -479.315735 104 95 23 
-6.003132 -14.459157 -479.186401 104 101 26 
-6.066045 -14.455256 -479.057129 94 100 26 
-6.130578 -14.455256 -479.057129 95 100 30 
-6.195110 -14.455256 -479.057129 112 96 30 
-6.259642 -14.455256 -479.057129 111 90 44 
-6.324175 -14.455256 -479.057129 114 92 45 
-6.388707 -14.455256 -479.057129 114 98 76 
-6.452659 -14.453957 -479.014038 135 104 74 
-6.517186 -14.453957 -479.014038 134 108 55 
-6.579937 -14.450059 -478.884857 130 107 56 
-6.642058 -14.444864 -478.712708 130 112 70 
-6.705339 -14.442269 -478.626709 149 121 70 
-6.768597 -14.439674 -478.540710 148 130 88 
-6.831833 -14.437080 -478.454742 160 138 87 
-6.896284 -14.437080 -478.454742 159 135 66 
-6.959485 -14.434487 -478.368805 137 128 66 
-7.023925 -14.434487 -478.368805 138 124 57 
-7.088365 -14.434487 -478.368805 144 126 58 
-7.152162 -14.433191 -478.325867 144 133 71 
-7.216596 -14.433191 -478.325867 150 138 71 
-7.281030 -14.433191 -478.325867 150 131 56 
-7.345463 -14.433191 -478.325867 124 121 56 
-7.409897 -14.433191 -478.325867 124 118 37 
-7.474331 -14.433191 -478.325867 120 120 37 
-7.537412 -14.430600 -478.239990 120 131 60 
-7.601151 -14.429304 -478.197052 137 139 60 
-7.665568 -14.429304 -478.197052 137 145 72 
-7.725131 -14.420243 -477.896759 157 152 72 
-7.787411 -14.416364 -477.768188 157 160 86 
-7.850361 -14.413778 -477.682495 169 167 86 
-7.913999 -14.412486 -477.639648 169 169 96 
-7.976910 -14.409902 -477.554016 170 169 96 
-8.040519 -14.408610 -477.511230 170 170 109 
-8.100487 -14.400865 -477.254547 165 174 109 
-8.159658 -14.391839 -476.955414 165 177 105 
-8.219493 -14.384112 -476.699341 169 177 104 
-8.283708 -14.384112 -476.699341 169 175 105 
-8.345682 -14.380252 -476.571411 169 174 105 
-8.407623 -14.376393 -476.443542 168 175 114 
-8.469531 -14.372537 -476.315735 173 177 115 
-8.533693 -14.372537 -476.315735 173 183 115 
-8.597088 -14.371252 -476.273163 180 185 116 
-8.660471 -14.369967 -476.230560 181 179 107 
-8.723843 -14.368683 -476.187988 174 177 106 
-8.787204 -14.367398 -476.145447 173 177 102 
-8.849762 -14.364830 -476.060333 174 178 102 
-8.913094 -14.363547 -476.017792 173 180 104 
-8.976415 -14.362264 -475.975250 175 180 104 
-9.038917 -14.359697 -475.890228 175 182 103 
-9.101397 -14.357132 -475.805206 179 182 103 
-9.163854 -14.354568 -475.720245 179 185 100 
-9.225465 -14.350723 -475.592804 178 184 99 
-9.287872 -14.348162 -475.507904 178 184 103 
-9.351092 -14.346881 -475.465485 177 182 103 
-9.413460 -14.344320 -475.380615 177 181 111 
-9.475806 -14.341761 -475.295776 181 185 112 
-9.538130 -14.339202 -475.210999 181 188 102 
-9.600431 -14.336644 -475.126221 185 187 101 
-9.661849 -14.332809 -474.999115 187 187 91 
-9.725835 -14.332809 -474.999115 172 186 89 
-9.788947 -14.331532 -474.956787 171 180 93 
-9.852927 -14.331532 -474.956787 167 179 95 
-9.916907 -14.331532 -474.956787 166 179 74 
-9.980887 -14.331532 -474.956787 169 178 72 
-10.045763 -14.332809 -474.999115 169 176 74 
-10.108848 -14.331532 -474.956787 168 175 74 
-10.172828 -14.331532 -474.956787 169 171 67 
-10.236808 -14.331532 -474.956787 163 170 64 
-10.300788 -14.331532 -474.956787 163 171 78 
-10.363844 -14.330254 -474.914429 156 172 81 
-10.427818 -14.330254 -474.914429 154 175 71 
-10.492728 -14.331532 -474.956787 164 174 69 
-10.555767 -14.330254 -474.914429 165 172 79 
-10.619741 -14.330254 -474.914429 162 171 82 
-10.684669 -14.331532 -474.956787 162 171 76 
-10.748649 -14.331532 -474.956787 156 170 75 
-10.812629 -14.331532 -474.956787 154 172 74 
-10.876609 -14.331532 -474.956787 159 171 74 
-10.940588 -14.331532 -474.956787 161 169 74 
-11.005549 -14.332809 -474.999115 158 167 74 
-11.069535 -14.332809 -474.999115 158 168 75 
-11.133521 -14.332809 -474.999115 154 167 73 
-11.198505 -14.334087 -475.041473 152 166 84 
-11.603376 -13.973959 -463.106598 142 159 46 
-11.665761 -13.973959 -463.106598 143 157 38 
-11.991898 -14.288218 -473.521362 139 155 32 
-12.062117 -14.295842 -473.774017 138 157 41 
-12.119471 -14.288218 -473.521362 133 159 42 
-11.914260 -13.972745 -463.066345 131 157 47 
-12.450083 -14.014163 -464.438995 143 171 109 
-12.510465 -14.011720 -464.358002 164 173 120 
-12.573017 -14.011720 -464.358002 171 178 120 
-12.634468 -14.010499 -464.317535 171 183 121 
-12.697015 -14.010499 -464.317535 172 189 127 
-12.756226 -14.006836 -464.196167 173 181 133 
-12.816523 -14.004395 -464.115265 180 168 118 
-12.880164 -14.005616 -464.155731 155 164 114 
-12.942690 -14.005616 -464.155731 144 166 108 
-13.007482 -14.008057 -464.236603 150 164 104 
-13.221075 -13.903853 -460.783264 141 147 77 
-13.280849 -13.901449 -460.703552 139 145 69 
-13.344063 -13.902651 -460.743408 139 142 75 
-13.407288 -13.903853 -460.783264 130 140 79 
-13.471689 -13.906260 -460.862976 126 144 69 
-13.532599 -13.905056 -460.823120 125 145 66 
-13.591148 -13.901449 -460.703552 123 141 60 
-13.652028 -13.900247 -460.663696 123 136 55 
-13.686860 -13.872655 -459.749298 125 136 60 
-13.742862 -13.866672 -459.550995 117 135 61 
-13.801195 -13.863084 -459.432098 110 138 63 
-13.863084 -13.863084 -459.432098 120 141 69 
-13.924973 -13.863084 -459.432098 125 138 52 
-13.986861 -13.863084 -459.432098 124 138 43 
-14.045115 -13.859498 -459.313263 125 138 43 
-14.106989 -13.859498 -459.313263 123 135 37 
-14.167640 -13.858303 -459.273651 125 135 50 
-14.228280 -13.857108 -459.234070 117 135 59 
-14.290143 -13.857108 -459.234070 111 138 46 
-14.349530 -13.854719 -459.154907 119 141 38 
-14.408898 -13.852331 -459.075775 122 140 48 
-14.469492 -13.851138 -459.036194 121 140 50 
-14.530075 -13.849944 -458.996643 122 139 59 
-14.589392 -13.847558 -458.917572 120 136 74 
-14.643641 -13.840405 -458.680481 118 135 46 
-14.702897 -13.838021 -458.601501 120 136 30 
-14.760862 -13.834448 -458.483093 121 141 32 
-14.821347 -13.833258 -458.443634 123 141 25 
-14.881823 -13.832067 -458.404205 124 137 34 
-14.942286 -13.830877 -458.364746 124 139 42 
-15.001451 -13.828497 -458.285889 125 141 28 
-15.060594 -13.826118 -458.207062 123 136 10 
-15.118416 -13.822552 -458.088837 122 132 40 
-15.177513 -13.820175 -458.010071 119 131 60 
-15.236590 -13.817799 -457.931335 115 128 52 
-15.296962 -13.816611 -457.891968 117 133 60 
-15.357324 -13.815424 -457.852600 119 136 32 
-15.417674 -13.814237 -457.813263 117 134 15 
-15.478015 -13.813049 -457.773926 116 136 9 
-15.538345 -13.811862 -457.734589 119 134 0 
-15.598665 -13.810676 -457.695251 121 133 27 
-15.654940 -13.805931 -457.538025 120 136 62 
-15.712524 -13.802375 -457.420166 120 136 45 
-15.772788 -13.801189 -457.380890 121 133 52 
-15.833041 -13.800005 -457.341614 122 131 24 
-15.894649 -13.800005 -457.341614 120 131 0 
-15.953516 -13.797635 -457.263092 118 134 24 
-16.016487 -13.798820 -457.302368 117 133 46 
-16.076710 -13.797635 -457.263092 116 132 44 
-16.136921 -13.796452 -457.223846 117 135 55 
-16.197123 -13.795267 -457.184631 119 137 44 
-16.255917 -13.792900 -457.106171 116 134 27 
-16.311893 -13.788167 -456.949310 112 133 52 
-16.367832 -13.783438 -456.792603 115 133 77 
-16.426548 -13.781075 -456.714264 117 129 61 
-16.486658 -13.779893 -456.675110 115 126 56 
-16.546757 -13.778712 -456.635956 111 126 54 
-16.606846 -13.777531 -456.596832 120 123 36 
-16.668352 -13.777531 -456.596832 119 124 72 
-16.729858 -13.777531 -456.596832 144 146 111 
-16.791367 -13.777531 -456.596832 186 164 96 
-16.851429 -13.776350 -456.557678 151 150 112 
-16.912930 -13.776350 -456.557678 126 130 61 
-16.974432 -13.776350 -456.557678 124 124 6 
-17.035933 -13.776350 -456.557678 112 125 14 
-17.098900 -13.777531 -456.596832 113 127 2 
-17.163349 -13.779893 -456.675110 109 129 1 
-18.030157 -14.171070 -469.639008 107 131 4 
-18.091825 -14.169822 -469.597595 108 130 0 
-18.155083 -14.169822 -469.597595 106 128 0 
-18.216736 -14.168572 -469.556213 108 127 0 
-18.278378 -14.167323 -469.514832 111 130 0 
-18.340008 -14.166075 -469.473450 111 131 0 
-18.403250 -14.166075 -469.473450 113 133 0 
-18.468119 -14.167323 -469.514832 110 130 0 
-18.531364 -14.167323 -469.514832 106 125 16 
-18.594612 -14.167323 -469.514832 111 130 59 
-18.657860 -14.167323 -469.514832 117 136 28 
-18.721106 -14.167323 -469.514832 116 135 0 
-18.782698 -14.166075 -469.473450 116 135 2 
-18.845940 -14.166075 -469.473450 115 131 0 
-18.905848 -14.163579 -469.390717 114 128 16 
-18.967407 -14.162331 -469.349365 114 132 61 
-19.023928 -14.157341 -469.183990 115 135 38 
-19.085449 -14.156095 -469.142670 115 135 25 
-19.146959 -14.154848 -469.101379 115 136 20 
-19.210152 -14.154848 -469.101379 116 137 0 
-19.273342 -14.154848 -469.101379 120 135 11 
-19.338236 -14.156095 -469.142670 117 135 41 
-19.401434 -14.156095 -469.142670 111 135 21 
-19.464630 -14.156095 -469.142670 116 136 0 
-19.536428 -14.162331 -469.349365 125 137 1 
-19.599653 -14.162331 -469.349365 119 137 0 
-19.661146 -14.161083 -469.308014 109 137 0 
-19.717417 -14.156095 -469.142670 113 137 0 
-19.778872 -14.154848 -469.101379 116 138 0 
-19.842064 -14.154848 -469.101379 117 138 0 
-19.903502 -14.153602 -469.060059 122 137 0 
-19.966688 -14.153602 -469.060059 118 137 8 
-20.028111 -14.152355 -469.018768 107 139 4 
-20.091290 -14.152355 -469.018768 113 143 0 
-20.154470 -14.152355 -469.018768 122 144 0 
-20.214090 -14.149864 -468.936188 122 141 0 
-20.277260 -14.149864 -468.936188 127 139 3 
-20.338638 -14.148619 -468.894928 125 139 16 
-20.400007 -14.147373 -468.853638 123 141 10 
-20.459562 -14.144883 -468.771149 123 142 0 
-20.519098 -14.142394 -468.688660 123 140 0 
-20.580423 -14.141150 -468.647400 123 143 0 
-20.632664 -14.133690 -468.400177 122 144 0 
-20.692122 -14.131205 -468.317810 123 142 0 
-20.753382 -14.129963 -468.276642 123 144 0 
-20.816463 -14.129963 -468.276642 124 144 0 
-20.879543 -14.129963 -468.276642 126 146 0 
-20.940783 -14.128720 -468.235504 125 147 0 
-21.003857 -14.128720 -468.235504 121 144 0 
-21.066931 -14.128720 -468.235504 123 143 0 
-21.130007 -14.128720 -468.235504 126 144 0 
-21.193081 -14.128720 -468.235504 126 144 4 
-21.254288 -14.127479 -468.194336 131 149 3 
-21.317356 -14.127479 -468.194336 129 149 0 
-21.380424 -14.127479 -468.194336 121 145 2 
-21.443495 -14.127479 -468.194336 123 146 18 
-21.504673 -14.126237 -468.153198 124 149 12 
-21.567738 -14.126237 -468.153198 125 151 0 
-21.626999 -14.123755 -468.070923 128 152 0 
-21.686241 -14.121273 -467.988678 129 149 0 
-21.745462 -14.118793 -467.906464 133 148 0 
-21.806576 -14.117553 -467.865387 133 150 0 
-21.869602 -14.117553 -467.865387 132 151 0 
-21.930700 -14.116313 -467.824280 132 150 0 
-21.993719 -14.116313 -467.824280 134 150 3 
-22.056738 -14.116313 -467.824280 133 149 26 
-22.119759 -14.116313 -467.824280 127 152 18 
-22.180830 -14.115073 -467.783203 129 152 0 
-22.241890 -14.113833 -467.742126 135 154 2 
-22.302940 -14.112595 -467.701080 134 157 7 
-22.363979 -14.111356 -467.660004 133 153 10 
-22.426975 -14.111356 -467.660004 132 152 24 
-22.487999 -14.110117 -467.618958 125 152 28 
-22.550991 -14.110117 -467.618958 128 155 58 
-22.613981 -14.110117 -467.618958 141 158 53 
-22.676973 -14.110117 -467.618958 140 161 50 
-22.737968 -14.108878 -467.577911 145 164 51 
-22.800955 -14.108878 -467.577911 145 165 49 
-22.863941 -14.108878 -467.577911 147 163 52 
-22.926928 -14.108878 -467.577911 147 162 78 
-22.989914 -14.108878 -467.577911 143 167 75 
-23.052900 -14.108878 -467.577911 144 171 75 
-23.117914 -14.110117 -467.618958 150 173 77 
-23.180906 -14.110117 -467.618958 150 174 90 
-23.243898 -14.110117 -467.618958 161 177 90 
-23.306890 -14.110117 -467.618958 161 180 89 
-23.369881 -14.110117 -467.618958 165 183 92 
-23.432873 -14.110117 -467.618958 165 186 111 
-23.495865 -14.110117 -467.618958 165 189 115 
-23.558857 -14.110117 -467.618958 166 185 159 
-23.621847 -14.110117 -467.618958 177 197 162 
-0.128280 -14.303258 -476.145447 164 202 164 
-0.192369 -14.299424 -476.017792 175 184 95 
-0.256400 -14.294314 -475.847717 168 179 110 
-0.320443 -14.291761 -475.762726 167 177 108 
-0.384497 -14.290485 -475.720245 159 175 104 
-0.448500 -14.287933 -475.635284 162 171 94 
-0.512434 -14.284107 -475.507904 166 171 96 
-0.576026 -14.272641 -475.126221 165 168 95 
-0.639915 -14.270096 -475.041473 166 169 93 
-0.703342 -14.258652 -474.660522 162 171 87 
-0.767008 -14.253572 -474.491425 151 171 90 
-0.830778 -14.251033 -474.406921 155 171 91 
-0.894604 -14.249764 -474.364655 155 168 91 
-0.958334 -14.247227 -474.280182 158 169 93 
-1.022223 -14.247227 -474.280182 165 170 92 
-1.085918 -14.244691 -474.195770 162 168 90 
-1.149489 -14.240888 -474.069153 157 170 91 
-1.213349 -14.240888 -474.069153 159 170 94 
-1.277096 -14.239620 -474.026978 159 167 93 
-1.341070 -14.240888 -474.069153 159 164 97 
-1.405306 -14.244691 -474.195770 162 164 90 
-1.469445 -14.247227 -474.280182 158 165 72 
-1.533470 -14.248495 -474.322418 148 160 77 
-1.597792 -14.252302 -474.449158 149 157 82 
-1.661851 -14.253572 -474.491425 147 158 76 
-1.726076 -14.256111 -474.575958 147 156 60 
-1.791601 -14.268824 -474.999115 146 152 64 
-1.856580 -14.276461 -475.253387 146 150 69 
-1.921800 -14.285382 -475.550354 148 152 63 
-1.986570 -14.290485 -475.720245 144 151 55 
-2.051385 -14.295591 -475.890228 131 144 45 
-2.115491 -14.295591 -475.890228 131 136 5 
-2.179597 -14.295591 -475.890228 122 133 18 
-2.243703 -14.295591 -475.890228 123 136 33 
-2.309872 -14.308373 -476.315735 118 139 35 
-2.384268 -14.370048 -478.368805 122 142 50 
-2.449368 -14.373920 -478.497711 136 143 49 
-2.513825 -14.373920 -478.497711 132 144 63 
-2.579208 -14.379086 -478.669708 124 145 52 
-2.643688 -14.379086 -478.669708 128 141 13 
-2.708412 -14.380379 -478.712708 136 142 26 
-2.772649 -14.379086 -478.669708 135 147 52 
-2.837384 -14.380379 -478.712708 134 148 49 
-2.901609 -14.379086 -478.669708 135 147 56 
-2.965823 -14.377794 -478.626709 141 147 53 
-3.030298 -14.377794 -478.626709 136 149 49 
-3.094494 -14.376503 -478.583710 119 152 46 
-3.158395 -14.373920 -478.497711 124 154 22 
-3.222563 -14.372629 -478.454742 137 152 33 
-3.286719 -14.371338 -478.411774 135 150 73 
-3.351164 -14.371338 -478.411774 136 147 65 
-3.415303 -14.370048 -478.368805 136 144 56 
-3.480055 -14.371338 -478.411774 140 144 54 
-3.544501 -14.371338 -478.411774 136 145 40 
-3.609594 -14.373920 -478.497711 127 139 40 
-3.674711 -14.376503 -478.583710 124 132 31 
-3.739516 -14.377794 -478.626709 100 121 33 
-3.805016 -14.381671 -478.755737 108 115 30 
-3.869508 -14.381671 -478.755737 131 123 34 
-3.934353 -14.382963 -478.798767 130 133 58 
-3.999570 -14.385550 -478.884857 140 138 54 
-4.064445 -14.386843 -478.927917 138 142 43 
-4.129331 -14.388136 -478.970978 136 142 48 
-4.194229 -14.389430 -479.014038 138 144 65 
-4.259138 -14.390724 -479.057129 146 148 67 
-4.323670 -14.390724 -479.057129 147 152 89 
-4.388203 -14.390724 -479.057129 161 154 87 
-4.452735 -14.390724 -479.057129 159 154 91 
-4.517268 -14.390724 -479.057129 157 155 89 
-4.581800 -14.390724 -479.057129 156 155 84 
-4.646332 -14.390724 -479.057129 149 155 81 
-4.710865 -14.390724 -479.057129 148 152 59 
-4.775397 -14.390724 -479.057129 138 149 60 
-4.839930 -14.390724 -479.057129 139 146 47 
-4.904462 -14.390724 -479.057129 135 143 49 
-4.968995 -14.390724 -479.057129 137 142 62 
-5.033979 -14.392018 -479.100189 147 135 58 
-5.098518 -14.392018 -479.100189 144 129 35 
-5.163056 -14.392018 -479.100189 126 125 36 
-5.227594 -14.392018 -479.100189 127 124 31 
-5.292608 -14.393312 -479.143311 124 122 31 
-5.357152 -14.393312 -479.143311 124 118 25 
-5.421696 -14.393312 -479.143311 120 115 25 
-5.486240 -14.393312 -479.143311 119 113 14 
-5.550784 -14.393312 -479.143311 112 105 16 
-5.616339 -14.395903 -479.229492 112 102 30 
-5.681917 -14.398493 -479.315735 107 103 28 
-5.747001 -14.399789 -479.358887 107 102 11 
-5.811574 -14.399789 -479.358887 102 99 13 
-5.876147 -14.399789 -479.358887 102 94 30 
-5.940186 -14.398493 -479.315735 104 93 29 
-6.003672 -14.395903 -479.229492 104 98 25 
-6.066045 -14.390724 -479.057129 95 97 26 
-6.130578 -14.390724 -479.057129 96 97 37 
-6.195110 -14.390724 -479.057129 111 99 37 
-6.259642 -14.390724 -479.057129 111 93 47 
-6.324175 -14.390724 -479.057129 115 91 47 
-6.388707 -14.390724 -479.057129 115 97 65 
-6.453239 -14.390724 -479.057129 135 104 64 
-6.517186 -14.389430 -479.014038 134 108 66 
-6.580529 -14.386843 -478.927917 132 113 66 
-6.642655 -14.381671 -478.755737 133 118 55 
-6.705339 -14.377794 -478.626709 148 124 56 
-6.768597 -14.375212 -478.540710 148 131 78 
-6.831833 -14.372629 -478.454742 160 136 76 
-6.896284 -14.372629 -478.454742 159 133 60 
-6.959485 -14.370048 -478.368805 141 128 60 
-7.023925 -14.370048 -478.368805 141 124 43 
-7.088365 -14.370048 -478.368805 145 124 43 
-7.152162 -14.368757 -478.325867 145 130 81 
-7.216596 -14.368757 -478.325867 150 136 81 
-7.281030 -14.368757 -478.325867 150 131 58 
-7.345463 -14.368757 -478.325867 122 119 58 
-7.409897 -14.368757 -478.325867 122 115 33 
-7.474331 -14.368757 -478.325867 122 124 33 
-7.537412 -14.366178 -478.239990 122 133 62 
-7.601151 -14.364888 -478.197052 138 140 62 
-7.664880 -14.363599 -478.154144 138 146 84 
-7.725131 -14.355867 -477.896759 155 153 84 
-7.787411 -14.352005 -477.768188 155 161 101 
-7.850361 -14.349431 -477.682495 165 166 102 
-7.913999 -14.348145 -477.639648 165 168 97 
-7.977625 -14.346858 -477.596832 168 166 96 
-8.040519 -14.344286 -477.511230 168 169 116 
-8.100487 -14.336576 -477.254547 168 173 116 
-8.159658 -14.327590 -476.955414 168 174 106 
-8.219493 -14.319898 -476.699341 172 173 106 
-8.282226 -14.317335 -476.614044 172 173 107 
-8.344935 -14.314774 -476.528778 170 176 106 
-8.407623 -14.312213 -476.443542 170 176 115 
-8.469531 -14.308373 -476.315735 174 179 116 
-8.532930 -14.307095 -476.273163 174 183 105 
-8.596319 -14.305816 -476.230560 176 182 105 
-8.658923 -14.303258 -476.145447 176 180 97 
-8.723063 -14.303258 -476.145447 173 178 96 
-8.786418 -14.301980 -476.102875 172 177 96 
-8.848970 -14.299424 -476.017792 174 180 94 
-8.911501 -14.296869 -475.932739 174 182 114 
-8.974010 -14.294314 -475.847717 176 179 116 
-9.037302 -14.293038 -475.805206 176 180 116 
-9.099771 -14.290485 -475.720245 179 182 117 
-9.162217 -14.287933 -475.635284 179 182 110 
-9.224642 -14.285382 -475.550354 178 184 109 
-9.287872 -14.284107 -475.507904 178 184 111 
-9.351092 -14.282832 -475.465485 176 181 112 
-9.414300 -14.281558 -475.423035 175 181 110 
-9.477497 -14.280283 -475.380615 179 185 110 
-9.539832 -14.277735 -475.295776 180 187 110 
-9.601288 -14.273914 -475.168610 176 183 112 
-9.662710 -14.270096 -475.041473 175 182 92 
-9.725835 -14.268824 -474.999115 174 179 90 
-9.788947 -14.267551 -474.956787 175 176 92 
-9.852927 -14.267551 -474.956787 168 178 95 
-9.916907 -14.267551 -474.956787 167 177 66 
-9.981778 -14.268824 -474.999115 164 176 61 
-10.045763 -14.268824 -474.999115 163 176 73 
-10.109749 -14.268824 -474.999115 164 173 75 
-10.172828 -14.267551 -474.956787 164 171 69 
-10.236808 -14.267551 -474.956787 163 171 66 
-10.299870 -14.266279 -474.914429 163 171 80 
-10.363844 -14.266279 -474.914429 160 172 84 
-10.427818 -14.266279 -474.914429 160 172 65 
-10.490857 -14.265007 -474.872101 160 171 59 
-10.554826 -14.265007 -474.872101 160 172 87 
-10.618794 -14.265007 -474.872101 159 173 94 
-10.683716 -14.266279 -474.914429 158 173 81 
-11.070522 -14.270096 -475.041473 159 166 79 
-11.133521 -14.268824 -474.999115 157 166 78 
-11.197507 -14.268824 -474.999115 156 165 88 
-11.540993 -13.911575 -463.106598 154 165 51 
-11.603376 -13.911575 -463.106598 156 164 45 
-11.665761 -13.911575 -463.106598 159 162 28 
-11.728145 -13.911575 -463.106598 149 159 19 
-11.790528 -13.911575 -463.106598 147 157 40 
-11.851881 -13.910366 -463.066345 141 159 45 
-11.913224 -13.909157 -463.026093 138 159 41 
-11.975597 -13.909157 -463.026093 146 157 39 
-12.447912 -13.949168 -464.358002 173 178 116 
-12.508284 -13.946736 -464.277069 170 174 127 
-12.570826 -13.946736 -464.277069 171 179 124 
-12.634468 -13.947952 -464.317535 166 189 124 
-12.693695 -13.944305 -464.196167 166 179 129 
-12.755115 -13.943090 -464.155731 157 162 135 
-12.816523 -13.941876 -464.115265 155 159 118 
-12.880164 -13.943090 -464.155731 143 159 113 
-12.944945 -13.945521 -464.236603 136 156 109 
-13.159004 -13.841783 -460.783264 129 151 91 
-13.217646 -13.838192 -460.663696 128 143 78 
-13.277404 -13.835799 -460.584045 125 138 69 
-13.339448 -13.835799 -460.584045 124 141 75 
-13.402650 -13.836995 -460.623871 124 142 79 
-13.468193 -13.840586 -460.743408 124 143 69 
-13.529089 -13.839389 -460.703552 125 144 66 
-13.591148 -13.839389 -460.703552 127 140 61 
-13.636698 -13.822653 -460.146423 125 137 56 
-13.684499 -13.808340 -459.669952 126 136 60 
-13.739305 -13.801195 -459.432098 123 137 61 
-13.800005 -13.800005 -459.392487 121 134 62 
-13.861888 -13.800005 -459.392487 122 134 67 
-13.922571 -13.798815 -459.352875 123 134 53 
-13.983243 -13.797625 -459.313263 122 133 47 
-14.042694 -13.795246 -459.234070 122 137 44 
-14.103340 -13.794057 -459.194489 120 138 39 
-14.165197 -13.794057 -459.194489 120 136 49 
-14.225828 -13.792868 -459.154907 118 136 55 
-14.287680 -13.792868 -459.154907 115 135 47 
-14.345821 -13.789302 -459.036194 116 137 43 
-14.406415 -13.788115 -458.996643 113 136 45 
-14.468246 -13.788115 -458.996643 124 137 41 
-14.527572 -13.785739 -458.917572 133 135 53 
-14.584366 -13.780990 -458.759491 125 130 65 
-14.639860 -13.775059 -458.562042 120 131 46 
-14.699101 -13.772687 -458.483093 127 134 38 
-14.758322 -13.770317 -458.404205 130 136 37 
-14.818797 -13.769132 -458.364746 127 136 31 
-14.880542 -13.769132 -458.364746 128 135 37 
-14.939715 -13.766763 -458.285889 119 137 46 
-14.997580 -13.763211 -458.167633 111 139 31 
-15.054119 -13.758477 -458.010071 117 138 16 
-15.114516 -13.757295 -457.970703 118 132 37 
