ply
format ascii 1.0
element vertex 1042
property float x
property float y
property float z
property uchar red
property uchar green
property uchar blue
end_header
-25.201279 -23.195208 -468.749603 127 139 48 
-25.263969 -23.195208 -468.749603 123 139 37 
-25.326658 -23.195208 -468.749603 116 139 41 
-25.389349 -23.195208 -468.749603 118 136 47 
-25.452038 -23.195208 -468.749603 120 139 46 
-25.514729 -23.195208 -468.749603 121 141 45 
-25.577417 -23.195208 -468.749603 124 138 46 
-25.642263 -23.197159 -468.789062 123 140 45 
-25.707123 -23.199110 -468.828491 120 143 46 
-25.769823 -23.199110 -468.828491 121 141 59 
-25.834696 -23.201061 -468.867950 125 139 46 
-25.899580 -23.203014 -468.907379 122 137 0 
-25.964476 -23.204967 -468.946838 113 135 2 
-26.027193 -23.204967 -468.946838 115 135 34 
-26.092104 -23.206921 -468.986328 120 140 25 
-26.154825 -23.206921 -468.986328 120 138 0 
-26.219753 -23.208874 -469.025787 121 134 0 
-26.282480 -23.208874 -469.025787 120 130 0 
-26.354080 -23.216690 -469.183746 109 130 0 
-26.421276 -23.220600 -469.262787 110 134 16 
-26.486265 -23.222555 -469.302307 110 136 13 
-26.553501 -23.226467 -469.381348 110 134 0 
-26.616276 -23.226467 -469.381348 114 127 0 
-26.683546 -23.230381 -469.460449 114 127 39 
-26.748585 -23.232338 -469.500000 108 134 36 
-26.813633 -23.234295 -469.539551 108 134 0 
-26.878693 -23.236254 -469.579132 107 125 0 
-26.950579 -23.244089 -469.737457 107 123 11 
-27.020233 -23.249968 -469.856293 105 122 11 
-27.085354 -23.251928 -469.895905 105 120 28 
-27.152777 -23.255850 -469.975159 107 121 28 
-27.217926 -23.257812 -470.014801 106 125 46 
-27.283087 -23.259773 -470.054443 122 132 46 
-27.350565 -23.263699 -470.133759 122 142 76 
-14.675573 -23.142250 -468.946838 161 144 93 
-14.733331 -23.134464 -468.789062 135 127 7 
-14.794781 -23.132517 -468.749603 95 131 22 
-14.857471 -23.132517 -468.749603 111 124 0 
-14.920160 -23.132517 -468.749603 116 124 18 
-14.982850 -23.132517 -468.749603 108 125 37 
-15.045540 -23.132517 -468.749603 104 126 29 
-15.108230 -23.132517 -468.749603 100 123 32 
-15.170919 -23.132517 -468.749603 92 119 19 
-15.233609 -23.132517 -468.749603 97 117 0 
-15.296299 -23.132517 -468.749603 98 120 13 
-15.358989 -23.132517 -468.749603 101 125 46 
-15.421679 -23.132517 -468.749603 107 127 26 
-15.484368 -23.132517 -468.749603 106 128 0 
-15.547058 -23.132517 -468.749603 105 126 14 
-15.609748 -23.132517 -468.749603 107 126 51 
-15.672438 -23.132517 -468.749603 114 129 43 
-15.735126 -23.132517 -468.749603 111 129 44 
-15.796488 -23.130571 -468.710205 106 129 40 
-15.855171 -23.124737 -468.591949 107 132 28 
-15.916502 -23.122791 -468.552551 109 129 30 
-15.980509 -23.124737 -468.591949 107 129 24 
-16.043177 -23.124737 -468.591949 102 128 27 
-16.107201 -23.126680 -468.631348 105 126 33 
-16.171234 -23.128626 -468.670776 114 127 33 
-16.235279 -23.130571 -468.710205 113 127 31 
-16.299335 -23.132517 -468.749603 113 125 36 
-16.362024 -23.132517 -468.749603 113 125 70 
-16.424715 -23.132517 -468.749603 108 127 65 
-16.486017 -23.130571 -468.710205 110 127 58 
-16.547310 -23.128626 -468.670776 121 132 58 
-16.607195 -23.124737 -468.591949 119 133 60 
-16.669865 -23.124737 -468.591949 110 134 57 
-16.729719 -23.120848 -468.513153 111 133 0 
-16.790966 -23.118904 -468.473755 110 125 0 
-16.849369 -23.113075 -468.355652 110 127 29 
-16.912006 -23.113075 -468.355652 111 126 29 
-16.973217 -23.111132 -468.316284 111 124 48 
-17.035849 -23.111132 -468.316284 113 128 49 
-17.098480 -23.111132 -468.316284 113 130 36 
-17.161112 -23.111132 -468.316284 111 130 37 
-17.222296 -23.109190 -468.276917 111 127 0 
-17.283470 -23.107248 -468.237579 111 123 0 
-17.346092 -23.107248 -468.237579 112 128 43 
-17.407249 -23.105307 -468.198242 108 127 47 
-17.468399 -23.103367 -468.158905 108 125 51 
-17.529537 -23.101425 -468.119568 111 125 55 
-17.592142 -23.101425 -468.119568 111 123 34 
-17.653265 -23.099485 -468.080261 110 122 28 
-17.715864 -23.099485 -468.080261 109 123 54 
-17.779959 -23.101425 -468.119568 113 130 61 
-17.842564 -23.101425 -468.119568 114 131 48 
-17.906673 -23.103367 -468.158905 113 133 53 
-17.972305 -23.107248 -468.237579 113 132 6 
-18.036442 -23.109190 -468.276917 113 125 0 
-18.099068 -23.109190 -468.276917 114 125 30 
-18.161694 -23.109190 -468.276917 111 127 45 
-18.222790 -23.107248 -468.237579 109 125 39 
-18.285410 -23.107248 -468.237579 112 125 36 
-18.348032 -23.107248 -468.237579 112 127 54 
-18.409107 -23.105307 -468.198242 115 131 66 
-18.470171 -23.103367 -468.158905 116 130 52 
-18.531225 -23.101425 -468.119568 114 128 54 
-18.593830 -23.101425 -468.119568 113 127 28 
-18.656435 -23.101425 -468.119568 115 128 3 
-18.719042 -23.101425 -468.119568 117 130 39 
-18.781647 -23.101425 -468.119568 113 133 63 
-18.844252 -23.101425 -468.119568 109 134 37 
-18.906858 -23.101425 -468.119568 112 132 27 
-18.971056 -23.103367 -468.158905 114 129 20 
-19.033667 -23.103367 -468.158905 113 129 8 
-19.096277 -23.103367 -468.158905 113 134 11 
-19.158890 -23.103367 -468.158905 114 134 3 
-19.221500 -23.103367 -468.158905 117 129 21 
-19.284111 -23.103367 -468.158905 115 129 51 
-19.348347 -23.105307 -468.198242 114 129 20 
-19.414225 -23.109190 -468.276917 115 129 0 
-19.478489 -23.111132 -468.316284 116 131 7 
-19.542763 -23.113075 -468.355652 114 131 12 
-19.608696 -23.116961 -468.434387 114 130 32 
-19.671343 -23.116961 -468.434387 112 130 77 
-19.737309 -23.120848 -468.513153 106 129 49 
-19.798304 -23.118904 -468.473755 109 128 12 
-19.860956 -23.118904 -468.473755 113 125 36 
-19.918585 -23.113075 -468.355652 113 129 73 
-19.979544 -23.111132 -468.316284 115 136 57 
-20.042175 -23.111132 -468.316284 114 132 50 
-20.104807 -23.111132 -468.316284 111 132 37 
-20.167439 -23.111132 -468.316284 113 133 0 
-20.230070 -23.111132 -468.316284 117 131 5 
-20.292702 -23.111132 -468.316284 116 133 20 
-20.357044 -23.113075 -468.355652 114 136 19 
-20.424831 -23.118904 -468.473755 113 134 24 
-20.490929 -23.122791 -468.552551 106 131 27 
-20.557051 -23.126680 -468.631348 109 135 40 
-20.621458 -23.128626 -468.670776 121 137 39 
-20.684137 -23.128626 -468.670776 119 137 49 
-20.745071 -23.126680 -468.631348 115 138 43 
-20.804247 -23.122791 -468.552551 115 137 12 
-20.866909 -23.122791 -468.552551 114 137 16 
-20.922537 -23.115017 -468.395020 114 135 13 
-20.981651 -23.111132 -468.316284 111 133 15 
-21.040747 -23.107248 -468.237579 111 133 24 
-21.103369 -23.107248 -468.237579 112 134 24 
-21.162434 -23.103367 -468.158905 112 133 33 
-21.223261 -23.101425 -468.119568 116 132 32 
-21.285866 -23.101425 -468.119568 116 136 24 
-21.348471 -23.101425 -468.119568 117 136 25 
-21.409279 -23.099485 -468.080261 117 132 30 
-21.473682 -23.101425 -468.119568 120 129 30 
-21.536287 -23.101425 -468.119568 120 129 30 
-21.598894 -23.101425 -468.119568 116 133 31 
-21.661499 -23.101425 -468.119568 116 133 0 
-21.724104 -23.101425 -468.119568 117 132 0 
-21.790371 -23.105307 -468.198242 117 131 0 
-21.854824 -23.107248 -468.237579 115 130 0 
-21.917444 -23.107248 -468.237579 115 130 0 
-21.980066 -23.107248 -468.237579 111 126 0 
-22.040834 -23.105307 -468.198242 111 124 34 
-22.103451 -23.105307 -468.198242 114 129 42 
-22.164206 -23.103367 -468.158905 114 132 6 
-22.228683 -23.105307 -468.198242 113 131 0 
-22.291300 -23.105307 -468.198242 113 131 18 
-22.353914 -23.105307 -468.198242 113 130 22 
-22.416531 -23.105307 -468.198242 113 131 7 
-22.481035 -23.107248 -468.237579 112 131 0 
-22.545551 -23.109190 -468.276917 112 130 30 
-22.608179 -23.109190 -468.276917 108 127 37 
-22.670805 -23.109190 -468.276917 106 129 39 
-22.735342 -23.111132 -468.316284 114 131 41 
-22.803722 -23.116961 -468.434387 116 131 41 
-22.868292 -23.118904 -468.473755 116 134 40 
-22.929018 -23.116961 -468.434387 118 133 49 
-22.991665 -23.116961 -468.434387 112 134 55 
-23.054314 -23.116961 -468.434387 109 134 42 
-23.113075 -23.113075 -468.355652 115 135 35 
-23.175713 -23.113075 -468.355652 119 135 44 
-23.238350 -23.113075 -468.355652 114 135 47 
-23.299028 -23.111132 -468.316284 111 136 44 
-23.359697 -23.109190 -468.276917 113 138 41 
-23.422323 -23.109190 -468.276917 114 137 47 
-23.484949 -23.109190 -468.276917 115 137 57 
-23.547577 -23.109190 -468.276917 117 139 35 
-23.610203 -23.109190 -468.276917 112 138 19 
-23.672829 -23.109190 -468.276917 108 138 30 
-23.735456 -23.109190 -468.276917 114 137 28 
-23.800083 -23.111132 -468.316284 118 133 44 
-23.862715 -23.111132 -468.316284 115 133 58 
-23.925346 -23.111132 -468.316284 112 139 49 
-23.987978 -23.111132 -468.316284 116 142 46 
-24.050610 -23.111132 -468.316284 121 143 48 
-24.115269 -23.113075 -468.355652 117 141 49 
-24.179937 -23.115017 -468.395020 112 139 48 
-24.246656 -23.118904 -468.473755 119 139 50 
-24.313396 -23.122791 -468.552551 130 140 41 
-24.380159 -23.126680 -468.631348 119 142 30 
-24.446945 -23.130571 -468.710205 108 140 39 
-24.509630 -23.130571 -468.710205 114 140 41 
-24.572315 -23.130571 -468.710205 116 143 49 
-24.634998 -23.130571 -468.710205 119 144 65 
-24.697683 -23.130571 -468.710205 124 142 56 
-24.760368 -23.130571 -468.710205 125 145 53 
-24.823053 -23.130571 -468.710205 130 148 46 
-24.887831 -23.132517 -468.749603 125 145 26 
-24.950520 -23.132517 -468.749603 115 143 39 
-25.013210 -23.132517 -468.749603 121 147 56 
-25.075899 -23.132517 -468.749603 129 145 52 
-25.138590 -23.132517 -468.749603 125 142 56 
-25.201279 -23.132517 -468.749603 124 142 48 
-25.263969 -23.132517 -468.749603 120 140 27 
-25.326658 -23.132517 -468.749603 108 140 35 
-25.389349 -23.132517 -468.749603 113 139 46 
-25.452038 -23.132517 -468.749603 120 141 43 
-25.514729 -23.132517 -468.749603 120 141 40 
-25.579569 -23.134464 -468.789062 125 140 41 
-25.642263 -23.134464 -468.789062 124 141 41 
-25.707123 -23.136410 -468.828491 126 141 41 
-25.771990 -23.138357 -468.867950 124 136 45 
-25.836870 -23.140303 -468.907379 117 136 38 
-25.901760 -23.142250 -468.946838 118 138 0 
-25.964476 -23.142250 -468.946838 116 136 10 
-26.029383 -23.144199 -468.986328 117 138 41 
-26.096497 -23.148094 -469.065277 121 139 34 
-26.157028 -23.146147 -469.025787 120 138 11 
-26.224169 -23.150043 -469.104767 121 134 13 
-26.282480 -23.146147 -469.025787 120 127 2 
-26.356298 -23.155891 -469.223267 111 126 5 
-26.421276 -23.157841 -469.262787 111 132 32 
-26.486265 -23.159792 -469.302307 104 133 30 
-26.553501 -23.163692 -469.381348 105 130 18 
-26.618519 -23.165644 -469.420898 116 130 19 
-26.683546 -23.167597 -469.460449 115 131 32 
-26.750837 -23.171501 -469.539551 111 129 31 
-26.813633 -23.171501 -469.539551 111 126 22 
-26.878693 -23.173452 -469.579132 109 124 22 
-26.950579 -23.181267 -469.737457 109 124 23 
-27.020233 -23.187130 -469.856293 103 122 23 
-27.085354 -23.189085 -469.895905 103 119 23 
-27.152777 -23.192997 -469.975159 109 120 23 
-27.220222 -23.196909 -470.054443 108 121 49 
-27.285387 -23.198866 -470.094086 126 129 50 
-27.352873 -23.202782 -470.173431 128 141 55 
-14.612858 -23.079535 -468.946838 159 169 182 
-14.671869 -23.073709 -468.828491 98 127 94 
-14.732091 -23.069828 -468.749603 113 125 7 
-14.794781 -23.069828 -468.749603 106 128 21 
-14.857471 -23.069828 -468.749603 107 127 0 
-14.920160 -23.069828 -468.749603 106 125 17 
-14.982850 -23.069828 -468.749603 106 125 38 
-15.045540 -23.069828 -468.749603 108 126 29 
-15.108230 -23.069828 -468.749603 105 125 32 
-15.170919 -23.069828 -468.749603 100 122 19 
-15.233609 -23.069828 -468.749603 103 124 0 
-15.296299 -23.069828 -468.749603 107 124 14 
-15.358989 -23.069828 -468.749603 106 124 45 
-15.421679 -23.069828 -468.749603 109 127 26 
-15.484368 -23.069828 -468.749603 107 127 0 
-15.547058 -23.069828 -468.749603 105 126 14 
-15.609748 -23.069828 -468.749603 105 127 46 
-15.672438 -23.069828 -468.749603 104 130 39 
-15.733804 -23.067886 -468.710205 107 132 40 
-15.796488 -23.067886 -468.710205 115 131 37 
-15.855171 -23.062067 -468.591949 112 130 28 
-15.916502 -23.060129 -468.552551 110 127 28 
-15.979165 -23.060129 -468.552551 110 124 23 
-16.043177 -23.062067 -468.591949 108 125 26 
-16.108555 -23.065947 -468.670776 109 126 34 
-16.171234 -23.065947 -468.670776 108 127 33 
-16.236645 -23.069828 -468.749603 109 128 33 
-16.299335 -23.069828 -468.749603 113 126 36 
-16.362024 -23.069828 -468.749603 113 127 58 
-16.424715 -23.069828 -468.749603 110 128 54 
-16.487404 -23.069828 -468.749603 110 128 50 
-16.548702 -23.067886 -468.710205 111 131 50 
-16.609989 -23.065947 -468.670776 111 131 53 
-16.669865 -23.062067 -468.591949 109 132 51 
-16.732533 -23.062067 -468.591949 109 133 2 
-16.792377 -23.058189 -468.513153 117 128 3 
-16.853619 -23.056252 -468.473755 117 126 28 
-16.912006 -23.050438 -468.355652 99 126 28 
-16.974644 -23.050438 -468.355652 99 121 31 
-17.035849 -23.048500 -468.316284 113 123 31 
-17.098480 -23.048500 -468.316284 113 128 32 
-17.161112 -23.048500 -468.316284 101 128 33 
-17.223743 -23.048500 -468.316284 99 125 11 
-17.284924 -23.046564 -468.276917 114 122 6 
-17.347549 -23.046564 -468.276917 116 127 39 
-17.408712 -23.044628 -468.237579 108 127 43 
-17.469866 -23.042690 -468.198242 107 127 41 
-17.532482 -23.042690 -468.198242 112 127 43 
-17.593620 -23.040756 -468.158905 114 125 37 
-17.656231 -23.040756 -468.158905 104 126 35 
-17.718842 -23.040756 -468.158905 100 127 38 
-17.781452 -23.040756 -468.158905 114 129 36 
-17.848562 -23.046564 -468.276917 116 128 40 
-17.912693 -23.048500 -468.316284 118 130 45 
-17.981369 -23.056252 -468.473755 120 130 20 
-18.044024 -23.056252 -468.473755 116 128 10 
-18.106676 -23.056252 -468.473755 114 128 34 
-18.164747 -23.050438 -468.355652 115 128 40 
-18.225853 -23.048500 -468.316284 115 124 39 
-18.286947 -23.046564 -468.276917 117 124 39 
-18.348032 -23.044628 -468.237579 118 128 46 
-18.410654 -23.044628 -468.237579 115 132 54 
-18.471722 -23.042690 -468.198242 113 130 39 
-18.532782 -23.040756 -468.158905 116 127 34 
-18.593830 -23.038820 -468.119568 118 125 27 
-18.656435 -23.038820 -468.119568 117 125 18 
-18.719042 -23.038820 -468.119568 120 129 26 
-18.781647 -23.038820 -468.119568 111 130 26 
-18.844252 -23.038820 -468.119568 104 130 34 
-18.908445 -23.040756 -468.158905 111 132 46 
-18.971056 -23.040756 -468.158905 115 131 31 
-19.033667 -23.040756 -468.158905 112 129 19 
-19.096277 -23.040756 -468.158905 110 134 28 
-19.158890 -23.040756 -468.158905 113 139 30 
-19.223114 -23.042690 -468.198242 116 132 33 
-19.287352 -23.044628 -468.237579 115 130 40 
-19.351599 -23.046564 -468.276917 116 131 33 
-19.414225 -23.046564 -468.276917 116 128 25 
-19.480125 -23.050438 -468.355652 117 131 31 
-19.546047 -23.054314 -468.434387 116 133 34 
-19.610344 -23.056252 -468.473755 119 132 36 
-19.674650 -23.058189 -468.513153 112 130 39 
-19.738968 -23.060129 -468.552551 99 130 39 
-19.799967 -23.058189 -468.513153 107 131 41 
-19.860956 -23.056252 -468.473755 114 130 38 
-19.920259 -23.052376 -468.395020 115 130 30 
-19.981222 -23.050438 -468.355652 122 132 33 
-20.042175 -23.048500 -468.316284 118 130 35 
-20.104807 -23.048500 -468.316284 110 132 34 
-20.167439 -23.048500 -468.316284 113 134 31 
-20.230070 -23.048500 -468.316284 120 133 33 
-20.292702 -23.048500 -468.316284 118 135 39 
-20.357044 -23.050438 -468.355652 117 136 35 
-20.426548 -23.058189 -468.513153 114 133 22 
-20.492653 -23.062067 -468.591949 102 133 27 
-20.558779 -23.065947 -468.670776 107 137 34 
-20.624928 -23.069828 -468.749603 125 137 36 
-20.687616 -23.069828 -468.749603 121 139 60 
-20.748562 -23.067886 -468.710205 114 143 51 
-20.809496 -23.065947 -468.670776 114 141 18 
-20.870420 -23.064007 -468.631348 111 134 22 
-20.929573 -23.060129 -468.552551 112 132 28 
-20.985178 -23.052376 -468.395020 112 131 29 
-21.044283 -23.048500 -468.316284 112 130 46 
-21.103369 -23.044628 -468.237579 112 134 45 
-21.165989 -23.044628 -468.237579 112 133 36 
-21.226828 -23.042690 -468.198242 117 133 36 
-21.287655 -23.040756 -468.158905 117 136 28 
-21.348471 -23.038820 -468.119568 117 136 28 
-21.411077 -23.038820 -468.119568 117 131 4 
-21.473682 -23.038820 -468.119568 122 131 4 
-21.536287 -23.038820 -468.119568 122 132 16 
-21.602524 -23.042690 -468.198242 116 132 16 
-21.665138 -23.042690 -468.198242 116 131 32 
-21.727755 -23.042690 -468.198242 117 130 34 
-21.792202 -23.044628 -468.237579 117 129 12 
-21.854824 -23.044628 -468.237579 115 129 10 
-21.917444 -23.044628 -468.237579 115 129 20 
-21.981913 -23.046564 -468.276917 112 130 22 
-22.042686 -23.044628 -468.237579 111 128 11 
-22.103451 -23.042690 -468.198242 114 128 8 
-22.164206 -23.040756 -468.158905 114 130 23 
-22.228683 -23.042690 -468.198242 113 130 23 
-22.291300 -23.042690 -468.198242 113 130 47 
-22.353914 -23.042690 -468.198242 113 133 60 
-22.416531 -23.042690 -468.198242 113 135 8 
-22.481035 -23.044628 -468.237579 112 133 0 
-22.545551 -23.046564 -468.276917 112 131 14 
-22.608179 -23.046564 -468.276917 108 128 13 
-22.672710 -23.048500 -468.316284 106 130 34 
-22.739164 -23.052376 -468.395020 114 131 40 
-22.805639 -23.056252 -468.473755 117 131 43 
-22.868292 -23.056252 -468.473755 116 135 53 
-22.930946 -23.056252 -468.473755 118 136 15 
-22.991665 -23.054314 -468.434387 113 136 0 
-23.054314 -23.054314 -468.434387 110 136 12 
-23.115017 -23.052376 -468.395020 115 134 6 
-23.175713 -23.050438 -468.355652 117 133 39 
-23.236397 -23.048500 -468.316284 113 133 60 
-23.297070 -23.046564 -468.276917 112 133 40 
-23.359697 -23.046564 -468.276917 114 134 30 
-23.422323 -23.046564 -468.276917 115 132 48 
-23.484949 -23.046564 -468.276917 115 136 71 
-23.547577 -23.046564 -468.276917 116 141 23 
-23.610203 -23.046564 -468.276917 114 138 0 
-23.672829 -23.046564 -468.276917 111 135 26 
-23.735456 -23.046564 -468.276917 116 136 49 
-23.800083 -23.048500 -468.316284 120 133 41 
-23.862715 -23.048500 -468.316284 118 132 38 
-23.925346 -23.048500 -468.316284 117 137 49 
-23.987978 -23.048500 -468.316284 119 139 63 
-24.052631 -23.050438 -468.355652 121 137 50 
-24.117294 -23.052376 -468.395020 118 137 41 
-24.184002 -23.056252 -468.473755 112 135 43 
-24.248693 -23.058189 -468.513153 119 137 45 
-24.315441 -23.062067 -468.591949 127 142 37 
-24.382210 -23.065947 -468.670776 120 142 25 
-24.446945 -23.067886 -468.710205 113 138 29 
-24.509630 -23.067886 -468.710205 117 140 28 
-24.572315 -23.067886 -468.710205 120 143 34 
-24.634998 -23.067886 -468.710205 122 144 41 
-24.699760 -23.069828 -468.749603 125 145 40 
-24.762451 -23.069828 -468.749603 125 145 46 
-24.825140 -23.069828 -468.749603 127 142 38 
-24.887831 -23.069828 -468.749603 124 140 16 
-24.950520 -23.069828 -468.749603 118 139 34 
-25.013210 -23.069828 -468.749603 120 143 66 
-25.075899 -23.069828 -468.749603 124 142 60 
-25.138590 -23.069828 -468.749603 122 141 76 
-25.201279 -23.069828 -468.749603 121 142 57 
-25.263969 -23.069828 -468.749603 120 141 8 
-25.326658 -23.069828 -468.749603 115 139 25 
-25.389349 -23.069828 -468.749603 116 139 52 
-25.452038 -23.069828 -468.749603 117 141 45 
-25.516874 -23.071768 -468.789062 118 140 36 
-25.579569 -23.071768 -468.789062 124 140 39 
-25.644423 -23.073709 -468.828491 122 141 51 
-25.707123 -23.073709 -468.828491 120 138 45 
-25.771990 -23.075651 -468.867950 120 136 32 
-25.836870 -23.077593 -468.907379 120 137 29 
-25.901760 -23.079535 -468.946838 119 136 0 
-25.966661 -23.081476 -468.986328 114 135 3 
-26.033766 -23.085363 -469.065277 115 136 41 
-26.098694 -23.087307 -469.104767 118 137 36 
-26.161430 -23.087307 -469.104767 118 136 29 
-26.224169 -23.087307 -469.104767 116 132 27 
-26.286905 -23.087307 -469.104767 116 127 1 
-26.356298 -23.093138 -469.223267 109 125 7 
-26.421276 -23.095083 -469.262787 109 128 58 
-26.486265 -23.097029 -469.302307 108 128 54 
-26.553501 -23.100920 -469.381348 109 128 33 
-26.618519 -23.102865 -469.420898 116 132 34 
-26.683546 -23.104811 -469.460449 116 130 21 
-26.750837 -23.108706 -469.539551 107 123 22 
-26.813633 -23.108706 -469.539551 107 123 43 
-26.878693 -23.110653 -469.579132 105 126 43 
-26.950579 -23.118444 -469.737457 105 124 28 
-27.020233 -23.124292 -469.856293 102 120 28 
-27.083071 -23.124292 -469.856293 101 120 23 
-27.150488 -23.128193 -469.935516 106 120 22 
-27.222519 -23.135998 -470.094086 105 123 54 
-27.289991 -23.139902 -470.173431 123 132 56 
-27.357489 -23.143806 -470.252777 125 142 44 
-14.551366 -23.018755 -468.986328 229 178 124 
-14.611628 -23.014881 -468.907379 159 153 45 
-14.671869 -23.011009 -468.828491 93 135 45 
-14.732091 -23.007137 -468.749603 112 124 14 
-14.794781 -23.007137 -468.749603 106 127 28 
-14.857471 -23.007137 -468.749603 107 128 34 
-14.920160 -23.007137 -468.749603 106 128 30 
-14.982850 -23.007137 -468.749603 106 127 20 
-15.045540 -23.007137 -468.749603 108 127 31 
-15.108230 -23.007137 -468.749603 105 127 55 
-15.170919 -23.007137 -468.749603 100 126 33 
-15.233609 -23.007137 -468.749603 103 126 0 
-15.296299 -23.007137 -468.749603 106 125 18 
-15.358989 -23.007137 -468.749603 106 124 54 
-15.421679 -23.007137 -468.749603 108 124 35 
-15.484368 -23.007137 -468.749603 107 126 13 
-15.547058 -23.007137 -468.749603 105 129 13 
-15.609748 -23.007137 -468.749603 105 129 0 
-15.672438 -23.007137 -468.749603 104 130 4 
-15.733804 -23.005203 -468.710205 107 132 23 
-15.795159 -23.003267 -468.670776 114 131 20 
-15.853839 -22.997465 -468.552551 112 130 23 
-15.915164 -22.995531 -468.513153 110 127 22 
-15.979165 -22.997465 -468.552551 109 124 14 
-16.041828 -22.997465 -468.552551 107 125 20 
-16.107201 -23.001333 -468.631348 108 126 44 
-16.171234 -23.003267 -468.670776 110 130 40 
-16.236645 -23.007137 -468.749603 110 130 37 
-16.299335 -23.007137 -468.749603 113 128 37 
-16.362024 -23.007137 -468.749603 113 128 30 
-16.424715 -23.007137 -468.749603 110 127 32 
-16.487404 -23.007137 -468.749603 110 127 45 
-16.548702 -23.005203 -468.710205 113 126 44 
-16.609989 -23.003267 -468.670776 112 127 33 
-16.671267 -23.001333 -468.631348 109 131 33 
-16.732533 -22.999399 -468.591949 109 131 18 
-16.793789 -22.997465 -468.552551 115 128 18 
-16.855036 -22.995531 -468.513153 115 127 24 
-16.916271 -22.993599 -468.473755 104 127 24 
-16.978924 -22.993599 -468.473755 104 123 0 
-17.041576 -22.993599 -468.473755 113 120 0 
-17.104231 -22.993599 -468.473755 114 123 34 
-17.166883 -22.993599 -468.473755 105 128 38 
-17.228086 -22.991665 -468.434387 104 127 12 
-17.289282 -22.989733 -468.395020 112 126 6 
-17.350466 -22.987801 -468.355652 113 130 46 
-17.411638 -22.985868 -468.316284 109 128 54 
-17.474272 -22.985868 -468.316284 108 128 26 
-17.535429 -22.983938 -468.276917 110 128 20 
-17.598055 -22.983938 -468.276917 111 127 38 
-17.660683 -22.983938 -468.276917 108 131 47 
-17.723309 -22.983938 -468.276917 106 132 4 
-17.787430 -22.985868 -468.316284 112 128 0 
-17.857565 -22.995531 -468.513153 114 128 28 
-17.923237 -22.999399 -468.591949 115 127 39 
-17.988932 -23.003267 -468.670776 116 125 30 
-18.051611 -23.003267 -468.670776 113 127 25 
-18.112766 -23.001333 -468.631348 111 130 45 
-18.172384 -22.997465 -468.552551 112 127 53 
-18.228916 -22.989733 -468.395020 112 123 48 
-18.288485 -22.985868 -468.316284 113 126 49 
-18.349573 -22.983938 -468.276917 113 128 45 
-18.410654 -22.982006 -468.237579 114 131 48 
-18.471722 -22.980076 -468.198242 114 133 28 
-18.532782 -22.978144 -468.158905 113 128 15 
-18.593830 -22.976213 -468.119568 113 124 20 
-18.656435 -22.976213 -468.119568 113 127 23 
-18.719042 -22.976213 -468.119568 114 131 11 
-18.781647 -22.976213 -468.119568 111 130 0 
-18.844252 -22.976213 -468.119568 107 127 27 
-18.908445 -22.978144 -468.158905 112 130 60 
-18.971056 -22.978144 -468.158905 117 131 40 
-19.035267 -22.980076 -468.198242 112 127 28 
-19.097883 -22.980076 -468.198242 107 130 39 
-19.162109 -22.982006 -468.237579 111 133 51 
-19.224730 -22.982006 -468.237579 113 131 41 
-19.287352 -22.982006 -468.237579 113 132 31 
-19.351599 -22.983938 -468.276917 113 133 40 
-19.414225 -22.983938 -468.276917 113 130 49 
-19.481764 -22.989733 -468.395020 115 132 44 
-19.546047 -22.991665 -468.434387 113 133 45 
-19.610344 -22.993599 -468.473755 112 133 38 
-19.674650 -22.995531 -468.513153 111 132 19 
-19.738968 -22.997465 -468.552551 109 130 34 
-19.798304 -22.993599 -468.473755 110 131 65 
-19.860956 -22.993599 -468.473755 111 132 43 
-19.918585 -22.987801 -468.355652 111 132 5 
-19.977863 -22.983938 -468.276917 109 132 18 
-20.040491 -22.983938 -468.276917 111 132 28 
-20.101427 -22.982006 -468.237579 117 135 30 
-20.164049 -22.982006 -468.237579 116 136 42 
-20.226669 -22.982006 -468.237579 116 134 40 
-20.289291 -22.982006 -468.237579 114 134 46 
-20.357044 -22.987801 -468.355652 108 136 40 
-20.424831 -22.993599 -468.473755 109 133 18 
-20.492653 -22.999399 -468.591949 109 133 24 
-20.560509 -23.005203 -468.710205 111 136 32 
-20.624928 -23.007137 -468.749603 122 136 35 
-20.687616 -23.007137 -468.749603 121 138 65 
-20.750307 -23.007137 -468.749603 119 143 56 
-20.812996 -23.007137 -468.749603 119 138 13 
-20.873930 -23.005203 -468.710205 121 129 19 
-20.933094 -23.001333 -468.631348 121 130 29 
-20.988707 -22.993599 -468.473755 115 128 30 
-21.046053 -22.987801 -468.355652 115 129 54 
-21.106915 -22.985868 -468.316284 113 133 52 
-21.167768 -22.983938 -468.276917 114 133 38 
-21.228611 -22.982006 -468.237579 116 132 38 
-21.289442 -22.980076 -468.198242 116 134 30 
-21.352058 -22.980076 -468.198242 117 134 30 
-21.412876 -22.978144 -468.158905 117 133 0 
-21.477291 -22.980076 -468.198242 117 133 0 
-21.539907 -22.980076 -468.198242 117 132 14 
-21.604338 -22.982006 -468.237579 114 132 14 
-21.666960 -22.982006 -468.237579 113 131 37 
-21.729580 -22.982006 -468.237579 112 130 40 
-21.794033 -22.983938 -468.276917 112 128 14 
-21.856659 -22.983938 -468.276917 113 128 11 
-21.919287 -22.983938 -468.276917 113 128 23 
-21.983761 -22.985868 -468.316284 111 129 26 
-22.044538 -22.983938 -468.276917 110 131 10 
-22.107166 -22.983938 -468.276917 114 131 6 
-22.166067 -22.980076 -468.198242 114 131 24 
-22.228683 -22.980076 -468.198242 118 131 24 
-22.291300 -22.980076 -468.198242 120 132 49 
-22.353914 -22.980076 -468.198242 111 137 63 
-22.418415 -22.982006 -468.237579 108 137 10 
-22.482925 -22.983938 -468.276917 111 133 0 
-22.545551 -22.983938 -468.276917 111 133 14 
-22.608179 -22.983938 -468.276917 110 132 13 
-22.674616 -22.987801 -468.355652 109 127 34 
-22.741076 -22.991665 -468.434387 115 125 41 
-22.805639 -22.993599 -468.473755 117 131 42 
-22.868292 -22.993599 -468.473755 120 137 52 
-22.930946 -22.993599 -468.473755 123 137 18 
-22.991665 -22.991665 -468.434387 119 137 2 
-23.052376 -22.989733 -468.395020 119 135 15 
-23.113075 -22.987801 -468.355652 114 131 9 
-23.173765 -22.985868 -468.316284 110 133 39 
-23.232491 -22.982006 -468.237579 114 135 57 
-23.295113 -22.982006 -468.237579 116 133 40 
-23.357733 -22.982006 -468.237579 115 132 31 
-23.420355 -22.982006 -468.237579 116 132 48 
-23.482977 -22.982006 -468.237579 114 136 68 
-23.545597 -22.982006 -468.237579 111 141 30 
-23.608219 -22.982006 -468.237579 116 139 0 
-23.670839 -22.982006 -468.237579 118 135 28 
-23.733461 -22.982006 -468.237579 123 133 46 
-23.796083 -22.982006 -468.237579 128 134 43 
-23.858704 -22.982006 -468.237579 127 137 45 
-23.921326 -22.982006 -468.237579 131 139 49 
-23.985962 -22.983938 -468.276917 125 141 55 
-24.050610 -22.985868 -468.316284 121 138 49 
-24.115269 -22.987801 -468.355652 118 135 44 
-24.179937 -22.989733 -468.395020 111 136 45 
-24.250732 -22.997465 -468.552551 114 137 46 
-24.315441 -22.999399 -468.591949 114 141 40 
-24.382210 -23.003267 -468.670776 118 141 32 
-24.446945 -23.005203 -468.710205 124 138 34 
-24.509630 -23.005203 -468.710205 125 139 30 
-24.572315 -23.005203 -468.710205 131 141 38 
-24.637072 -23.007137 -468.749603 128 140 52 
-24.699760 -23.007137 -468.749603 125 141 47 
-24.762451 -23.007137 -468.749603 125 142 48 
-24.825140 -23.007137 -468.749603 123 139 40 
-24.887831 -23.007137 -468.749603 122 134 17 
-24.950520 -23.007137 -468.749603 120 136 33 
-25.013210 -23.007137 -468.749603 118 140 56 
-25.075899 -23.007137 -468.749603 113 140 52 
-25.138590 -23.007137 -468.749603 115 140 60 
-25.201279 -23.007137 -468.749603 116 141 49 
-25.263969 -23.007137 -468.749603 117 142 18 
-25.326658 -23.007137 -468.749603 123 140 28 
-25.391483 -23.009073 -468.789062 121 140 46 
-25.454180 -23.009073 -468.789062 114 140 41 
-25.519020 -23.011009 -468.828491 116 137 33 
-25.581720 -23.011009 -468.828491 121 138 34 
-25.644423 -23.011009 -468.828491 119 140 30 
-25.709286 -23.012945 -468.867950 115 137 31 
-25.774158 -23.014881 -468.907379 116 137 37 
-25.839045 -23.016819 -468.946838 120 137 33 
-25.901760 -23.016819 -468.946838 119 134 1 
-25.966661 -23.018755 -468.986328 115 130 10 
-26.033766 -23.022631 -469.065277 115 132 53 
-26.098694 -23.024569 -469.104767 116 136 47 
-26.161430 -23.024569 -469.104767 115 135 28 
-26.226376 -23.026506 -469.144257 109 131 27 
-26.289118 -23.026506 -469.144257 109 128 0 
-26.358519 -23.032324 -469.262787 106 126 3 
-26.421276 -23.032324 -469.262787 107 126 29 
-26.486265 -23.034264 -469.302307 110 128 28 
-26.553501 -23.038145 -469.381348 110 129 33 
-26.618519 -23.040085 -469.420898 118 131 33 
-26.683546 -23.042027 -469.460449 117 129 40 
-26.750837 -23.045910 -469.539551 106 125 39 
-26.813633 -23.045910 -469.539551 106 125 29 
-26.880959 -23.049793 -469.618683 99 126 30 
-26.950579 -23.055622 -469.737457 99 124 20 
-27.020233 -23.061455 -469.856293 100 123 20 
-27.083071 -23.061455 -469.856293 99 124 11 
-27.150488 -23.065344 -469.935516 103 122 8 
-27.222519 -23.073128 -470.094086 102 124 37 
-27.292295 -23.078968 -470.213104 122 132 39 
-27.364416 -23.086761 -470.371857 125 142 47 
-14.492304 -22.961832 -469.104767 174 184 227 
-14.551366 -22.956034 -468.986328 113 151 122 
-14.611628 -22.952171 -468.907379 123 136 31 
-14.671869 -22.948309 -468.828491 110 127 43 
-14.733331 -22.946379 -468.789062 108 128 14 
-14.794781 -22.944448 -468.749603 102 125 28 
-14.857471 -22.944448 -468.749603 104 123 38 
-14.920160 -22.944448 -468.749603 103 124 30 
-14.982850 -22.944448 -468.749603 104 122 19 
-15.045540 -22.944448 -468.749603 104 123 31 
-15.108230 -22.944448 -468.749603 105 125 56 
-15.170919 -22.944448 -468.749603 107 123 33 
-15.233609 -22.944448 -468.749603 106 120 0 
-15.296299 -22.944448 -468.749603 105 122 18 
-15.358989 -22.944448 -468.749603 104 128 54 
-15.421679 -22.944448 -468.749603 101 126 35 
-15.484368 -22.944448 -468.749603 103 124 13 
-15.547058 -22.944448 -468.749603 108 128 14 
-15.609748 -22.944448 -468.749603 106 129 0 
-15.671119 -22.942518 -468.710205 99 129 7 
-15.732480 -22.940588 -468.670776 103 131 22 
-15.795159 -22.940588 -468.670776 112 129 20 
-15.853839 -22.934801 -468.552551 109 126 25 
-15.913826 -22.930946 -468.473755 103 125 24 
-15.979165 -22.934801 -468.552551 104 129 17 
-16.041828 -22.934801 -468.552551 107 128 22 
-16.107201 -22.938660 -468.631348 108 125 43 
-16.172594 -22.942518 -468.710205 115 128 40 
-16.236645 -22.944448 -468.749603 114 128 37 
-16.299335 -22.944448 -468.749603 113 127 37 
-16.362024 -22.944448 -468.749603 113 129 35 
-16.424715 -22.944448 -468.749603 109 128 36 
-16.487404 -22.944448 -468.749603 110 128 42 
-16.548702 -22.942518 -468.710205 112 127 41 
-16.609989 -22.940588 -468.670776 112 128 39 
-16.671267 -22.938660 -468.631348 108 132 39 
-16.732533 -22.936731 -468.591949 108 133 18 
-16.795202 -22.936731 -468.591949 113 130 18 
-16.855036 -22.932873 -468.513153 113 127 29 
-16.917694 -22.932873 -468.513153 113 127 29 
-16.980352 -22.932873 -468.513153 113 126 9 
-17.043011 -22.932873 -468.513153 114 124 8 
-17.105667 -22.932873 -468.513153 114 124 26 
-17.169769 -22.934801 -468.552551 112 126 28 
-17.230984 -22.932873 -468.513153 112 130 21 
-17.293642 -22.932873 -468.513153 108 130 21 
-17.354841 -22.930946 -468.473755 107 130 37 
-17.416031 -22.929018 -468.434387 110 129 41 
-17.477209 -22.927092 -468.395020 110 125 31 
-17.538376 -22.925163 -468.355652 107 124 29 
-17.601013 -22.925163 -468.355652 105 129 37 
-17.665136 -22.927092 -468.395020 111 132 42 
-17.730759 -22.930946 -468.473755 113 130 21 
-17.796404 -22.934801 -468.552551 111 128 12 
-17.863573 -22.940588 -468.670776 111 128 33 
-17.927759 -22.942518 -468.710205 110 128 39 
-17.991959 -22.944448 -468.749603 110 128 36 
-18.054647 -22.944448 -468.749603 108 127 37 
-18.115814 -22.942518 -468.710205 107 128 34 
-18.175440 -22.938660 -468.631348 109 128 31 
-18.235048 -22.934801 -468.552551 110 126 40 
-18.291559 -22.927092 -468.395020 109 128 45 
-18.351116 -22.923237 -468.316284 108 128 44 
-18.412201 -22.921310 -468.276917 112 127 51 
-18.473274 -22.919384 -468.237579 115 131 33 
-18.534338 -22.917459 -468.198242 111 131 19 
-18.595392 -22.915533 -468.158905 109 129 29 
-18.656435 -22.913609 -468.119568 110 129 36 
-18.719042 -22.913609 -468.119568 109 132 26 
-18.781647 -22.913609 -468.119568 112 133 14 
-18.845835 -22.915533 -468.158905 113 126 34 
-18.908445 -22.915533 -468.158905 115 127 56 
-18.972651 -22.917459 -468.198242 120 130 32 
-19.036865 -22.919384 -468.237579 112 125 12 
-19.099487 -22.919384 -468.237579 103 126 24 
-19.162109 -22.919384 -468.237579 107 129 27 
-19.226345 -22.921310 -468.276917 108 131 34 
-19.288973 -22.921310 -468.276917 109 132 48 
-19.351599 -22.921310 -468.276917 111 130 41 
-19.415857 -22.923237 -468.316284 111 130 34 
-19.481764 -22.927092 -468.395020 113 132 39 
-19.547691 -22.930946 -468.473755 111 133 47 
-19.613642 -22.934801 -468.552551 106 132 41 
-19.676306 -22.934801 -468.552551 109 132 31 
-19.738968 -22.934801 -468.552551 114 130 35 
-19.798304 -22.930946 -468.473755 111 128 39 
-19.860956 -22.930946 -468.473755 108 128 38 
-19.918585 -22.925163 -468.355652 107 129 42 
-19.977863 -22.921310 -468.276917 100 130 38 
-20.040491 -22.921310 -468.276917 106 130 27 
-20.101427 -22.919384 -468.237579 123 133 33 
-20.164049 -22.919384 -468.237579 119 135 47 
-20.226669 -22.919384 -468.237579 116 133 43 
-20.289291 -22.919384 -468.237579 114 131 37 
-20.355333 -22.923237 -468.316284 103 132 37 
-20.424831 -22.930946 -468.473755 106 130 30 
-20.492653 -22.936731 -468.591949 111 131 34 
-20.562237 -22.944448 -468.749603 112 134 48 
-20.624928 -22.944448 -468.749603 124 135 48 
-20.687616 -22.944448 -468.749603 123 137 61 
-20.750307 -22.944448 -468.749603 122 139 57 
-20.812996 -22.944448 -468.749603 122 134 37 
-20.875687 -22.944448 -468.749603 124 130 38 
-20.936615 -22.942518 -468.710205 123 130 32 
-20.992237 -22.934801 -468.552551 116 130 33 
-21.051359 -22.930946 -468.473755 117 131 36 
-21.108688 -22.925163 -468.355652 114 134 36 
-21.171326 -22.925163 -468.355652 114 133 39 
-21.233963 -22.925163 -468.355652 116 133 39 
-21.294811 -22.923237 -468.316284 116 135 18 
-21.357443 -22.923237 -468.316284 117 134 18 
-21.420074 -22.923237 -468.316284 117 133 24 
-21.482706 -22.923237 -468.316284 117 132 25 
-21.545338 -22.923237 -468.316284 117 131 19 
-21.607969 -22.923237 -468.316284 113 133 18 
-21.670601 -22.923237 -468.316284 113 133 24 
-21.735060 -22.925163 -468.355652 111 133 25 
-21.797697 -22.925163 -468.355652 110 132 17 
-21.860334 -22.925163 -468.355652 113 129 17 
-21.928499 -22.930946 -468.473755 114 129 3 
-21.991154 -22.930946 -468.473755 110 130 1 
-22.046392 -22.923237 -468.316284 109 132 2 
-22.109024 -22.923237 -468.316284 114 132 0 
-22.171656 -22.923237 -468.316284 114 132 18 
-22.232418 -22.921310 -468.276917 118 133 22 
-22.295046 -22.921310 -468.276917 120 135 24 
-22.357672 -22.921310 -468.276917 111 138 27 
-22.420298 -22.921310 -468.276917 108 137 9 
-22.484814 -22.923237 -468.316284 111 133 0 
-22.547447 -22.923237 -468.316284 111 132 33 
-22.611979 -22.925163 -468.355652 110 133 45 
-22.676521 -22.927092 -468.395020 109 128 38 
-22.741076 -22.929018 -468.434387 115 126 39 
-22.811394 -22.936731 -468.591949 117 131 35 
-22.872139 -22.934801 -468.552551 120 139 35 
-22.934801 -22.934801 -468.552551 123 141 23 
-22.995531 -22.932873 -468.513153 119 138 13 
-23.052376 -22.927092 -468.395020 118 135 33 
-23.113075 -22.925163 -468.355652 114 132 43 
-23.171818 -22.921310 -468.276917 110 134 36 
-23.232491 -22.919384 -468.237579 114 135 35 
-23.295113 -22.919384 -468.237579 115 133 34 
-23.357733 -22.919384 -468.237579 116 134 28 
-23.420355 -22.919384 -468.237579 118 136 46 
-23.482977 -22.919384 -468.237579 115 136 55 
-23.545597 -22.919384 -468.237579 113 137 60 
-23.608219 -22.919384 -468.237579 116 139 72 
-23.670839 -22.919384 -468.237579 117 138 58 
-23.733461 -22.919384 -468.237579 121 136 46 
-23.796083 -22.919384 -468.237579 125 137 58 
-23.858704 -22.919384 -468.237579 125 139 75 
-23.921326 -22.919384 -468.237579 128 143 49 
-23.983946 -22.919384 -468.237579 124 142 22 
-24.048588 -22.921310 -468.276917 121 135 42 
-24.115269 -22.925163 -468.355652 119 137 57 
-24.181971 -22.929018 -468.434387 113 142 48 
-24.250732 -22.934801 -468.552551 117 139 41 
-24.317486 -22.938660 -468.631348 118 138 47 
-24.382210 -22.940588 -468.670776 119 140 59 
-24.444889 -22.940588 -468.670776 121 141 45 
-24.509630 -22.942518 -468.710205 122 140 19 
-24.572315 -22.942518 -468.710205 126 137 43 
-24.637072 -22.944448 -468.749603 125 138 78 
-24.699760 -22.944448 -468.749603 124 141 61 
-24.762451 -22.944448 -468.749603 123 141 51 
-24.825140 -22.944448 -468.749603 121 138 41 
-24.887831 -22.944448 -468.749603 122 137 7 
-24.950520 -22.944448 -468.749603 122 141 21 
-25.013210 -22.944448 -468.749603 121 143 36 
-25.075899 -22.944448 -468.749603 121 141 34 
-25.138590 -22.944448 -468.749603 120 141 41 
-25.201279 -22.944448 -468.749603 115 140 36 
-25.263969 -22.944448 -468.749603 117 140 23 
-25.328789 -22.946379 -468.789062 121 140 28 
-25.391483 -22.946379 -468.789062 119 140 38 
-25.456320 -22.948309 -468.828491 113 139 34 
-25.519020 -22.948309 -468.828491 115 137 27 
-25.581720 -22.948309 -468.828491 123 137 25 
-25.644423 -22.948309 -468.828491 121 138 1 
-25.711449 -22.952171 -468.907379 115 135 10 
-25.774158 -22.952171 -468.907379 116 134 41 
-25.839045 -22.954102 -468.946838 122 135 35 
-25.903940 -22.956034 -468.986328 120 132 12 
-25.968847 -22.957966 -469.025787 109 126 20 
-26.035957 -22.961832 -469.104767 111 128 77 
-26.100891 -22.963764 -469.144257 116 136 68 
-26.163633 -22.963764 -469.144257 116 135 34 
-26.228584 -22.965698 -469.183746 115 132 34 
-26.289118 -22.963764 -469.144257 114 129 0 
-26.358519 -22.969566 -469.262787 108 128 0 
-26.423502 -22.971500 -469.302307 108 129 1 
-26.488497 -22.973436 -469.341827 111 130 2 
-26.553501 -22.975370 -469.381348 111 132 48 
-26.618519 -22.977306 -469.420898 115 133 47 
-26.683546 -22.979242 -469.460449 115 130 55 
-26.750837 -22.983114 -469.539551 103 127 55 
-26.813633 -22.983114 -469.539551 103 127 31 
-26.880959 -22.986988 -469.618683 109 127 31 
-26.952850 -22.994740 -469.777069 109 124 13 
-27.020233 -22.998617 -469.856293 100 126 13 
-27.085354 -23.000557 -469.895905 99 124 0 
-27.155067 -23.006376 -470.014801 107 121 0 
-27.229410 -23.016083 -470.213104 106 126 24 
-27.296902 -23.019968 -470.292480 124 134 25 
-27.369038 -23.027742 -470.451294 127 140 49 
-14.430781 -22.901022 -469.144257 248 207 135 
-14.493524 -22.901022 -469.144257 171 168 44 
-14.553816 -22.897167 -469.065277 100 142 50 
-14.611628 -22.889460 -468.907379 119 128 22 
-14.671869 -22.885609 -468.828491 112 124 23 
-14.733331 -22.883684 -468.789062 108 126 13 
-14.796025 -22.883684 -468.789062 101 125 18 
-14.857471 -22.881758 -468.749603 103 120 17 
-14.920160 -22.881758 -468.749603 103 118 27 
-14.982850 -22.881758 -468.749603 103 117 43 
-15.045540 -22.881758 -468.749603 104 119 36 
-15.106958 -22.879833 -468.710205 105 123 39 
-15.170919 -22.881758 -468.749603 108 125 25 
-15.233609 -22.881758 -468.749603 106 120 0 
-15.296299 -22.881758 -468.749603 105 122 15 
-15.358989 -22.881758 -468.749603 104 129 51 
-15.421679 -22.881758 -468.749603 101 132 39 
-15.484368 -22.881758 -468.749603 103 128 27 
-15.547058 -22.881758 -468.749603 108 127 34 
-15.609748 -22.881758 -468.749603 106 128 56 
-15.671119 -22.879833 -468.710205 100 124 40 
-15.732480 -22.877909 -468.670776 103 126 0 
-15.795159 -22.877909 -468.670776 112 126 9 
-15.853839 -22.872139 -468.552551 110 124 47 
-15.915164 -22.870216 -468.513153 104 129 41 
-15.979165 -22.872139 -468.552551 105 131 41 
-16.043177 -22.874062 -468.591949 107 126 41 
-16.108555 -22.877909 -468.670776 108 124 41 
-16.173956 -22.881758 -468.749603 114 121 42 
-16.236645 -22.881758 -468.749603 113 123 51 
-16.299335 -22.881758 -468.749603 113 126 50 
-16.362024 -22.881758 -468.749603 113 128 48 
-16.424715 -22.881758 -468.749603 111 128 47 
-16.486017 -22.879833 -468.710205 111 128 14 
-16.548702 -22.879833 -468.710205 112 125 17 
-16.609989 -22.877909 -468.670776 112 126 58 
-16.671267 -22.875986 -468.631348 111 134 58 
-16.732533 -22.874062 -468.591949 111 135 29 
-16.795202 -22.874062 -468.591949 113 132 29 
-16.855036 -22.870216 -468.513153 113 131 45 
-16.917694 -22.870216 -468.513153 112 130 46 
-16.980352 -22.870216 -468.513153 112 127 33 
-17.043011 -22.870216 -468.513153 114 127 34 
-17.107107 -22.872139 -468.552551 114 129 0 
-17.169769 -22.872139 -468.552551 111 126 0 
-17.232433 -22.872139 -468.552551 110 128 54 
-17.295097 -22.872139 -468.552551 108 130 68 
-17.357759 -22.872139 -468.552551 107 129 16 
-17.418959 -22.870216 -468.513153 110 128 5 
-17.481617 -22.870216 -468.513153 111 127 38 
-17.544275 -22.870216 -468.513153 109 126 43 
-17.608414 -22.872139 -468.552551 108 129 39 
-17.671078 -22.872139 -468.552551 112 131 39 
-17.735231 -22.874062 -468.591949 113 130 41 
-17.800894 -22.877909 -468.670776 110 128 41 
-17.865076 -22.879833 -468.710205 108 127 40 
-17.929268 -22.881758 -468.749603 112 129 36 
-17.991959 -22.881758 -468.749603 113 130 56 
-18.054647 -22.881758 -468.749603 109 127 77 
-18.117338 -22.881758 -468.749603 107 127 23 
-18.178497 -22.879833 -468.710205 110 129 0 
-18.236580 -22.874062 -468.591949 110 128 33 
-18.294634 -22.868292 -468.473755 111 128 45 
-18.354200 -22.864449 -468.395020 111 130 43 
-18.412201 -22.858685 -468.276917 112 128 52 
-18.473274 -22.856764 -468.237579 113 127 32 
-18.534338 -22.854843 -468.198242 110 130 13 
-18.596954 -22.854843 -468.198242 109 131 39 
-18.658003 -22.852922 -468.158905 109 130 58 
-18.720613 -22.852922 -468.158905 110 132 40 
-18.783224 -22.852922 -468.158905 107 128 27 
-18.845835 -22.852922 -468.158905 103 121 40 
-18.910034 -22.854843 -468.198242 109 128 61 
-18.974245 -22.856764 -468.237579 116 133 28 
-19.036865 -22.856764 -468.237579 111 127 0 
-19.101091 -22.858685 -468.276917 106 126 9 
-19.163719 -22.858685 -468.276917 110 129 5 
-19.226345 -22.858685 -468.276917 115 132 28 
-19.288973 -22.858685 -468.276917 113 132 65 
-19.353226 -22.860605 -468.316284 112 128 46 
-19.417488 -22.862526 -468.355652 113 128 30 
-19.485039 -22.868292 -468.473755 113 132 40 
-19.550978 -22.872139 -468.552551 113 133 53 
-19.615292 -22.874062 -468.591949 115 132 44 
-19.677959 -22.874062 -468.591949 114 128 34 
-19.740629 -22.874062 -468.591949 110 127 34 
-19.803297 -22.874062 -468.591949 112 129 25 
-19.864296 -22.872139 -468.552551 113 127 33 
-19.923609 -22.868292 -468.473755 113 128 54 
-19.979544 -22.860605 -468.316284 114 129 45 
-20.042175 -22.860605 -468.316284 113 128 23 
-20.104807 -22.860605 -468.316284 111 130 35 
-20.167439 -22.860605 -468.316284 112 129 64 
-20.230070 -22.860605 -468.316284 113 128 54 
-20.292702 -22.860605 -468.316284 113 129 35 
-20.362179 -22.868292 -468.473755 113 130 37 
-20.428267 -22.872139 -468.552551 113 131 31 
-20.494375 -22.875986 -468.631348 112 132 37 
-20.562237 -22.881758 -468.749603 113 135 65 
-20.624928 -22.881758 -468.749603 115 136 61 
-20.687616 -22.881758 -468.749603 115 135 63 
-20.750307 -22.881758 -468.749603 115 137 61 
-20.812996 -22.881758 -468.749603 115 133 48 
-20.875687 -22.881758 -468.749603 121 129 48 
-20.938375 -22.881758 -468.749603 120 132 34 
-20.995768 -22.875986 -468.631348 113 133 35 
-21.053129 -22.870216 -468.513153 113 133 33 
-21.115788 -22.870216 -468.513153 112 136 33 
-21.178446 -22.870216 -468.513153 112 135 42 
-21.241104 -22.870216 -468.513153 117 135 42 
-21.303762 -22.870216 -468.513153 117 136 12 
-21.364624 -22.868292 -468.473755 115 135 11 
-21.427277 -22.868292 -468.473755 115 132 29 
-21.488123 -22.866371 -468.434387 114 131 30 
-21.547148 -22.862526 -468.355652 113 131 21 
-21.609785 -22.862526 -468.355652 116 134 20 
-21.672422 -22.862526 -468.355652 116 134 21 
-21.735060 -22.862526 -468.355652 114 135 22 
-21.797697 -22.862526 -468.355652 114 132 17 
-21.865847 -22.868292 -468.473755 109 128 19 
-21.928499 -22.868292 -468.473755 107 129 0 
-21.991154 -22.868292 -468.473755 116 130 0 
-22.053806 -22.868292 -468.473755 118 131 0 
-22.109024 -22.860605 -468.316284 117 132 0 
-22.171656 -22.860605 -468.316284 117 133 17 
-22.232418 -22.858685 -468.276917 116 134 21 
-22.295046 -22.858685 -468.276917 117 136 23 
-22.357672 -22.858685 -468.276917 111 139 28 
-22.420298 -22.858685 -468.276917 108 136 9 
-22.484814 -22.860605 -468.316284 112 130 0 
-22.547447 -22.860605 -468.316284 114 131 35 
-22.611979 -22.862526 -468.355652 107 132 46 
-22.676521 -22.864449 -468.395020 102 131 38 
-22.744900 -22.870216 -468.513153 112 132 39 
-22.811394 -22.874062 -468.591949 114 133 35 
-22.872139 -22.872139 -468.552551 117 138 35 
-22.934801 -22.872139 -468.552551 121 139 24 
-22.995531 -22.870216 -468.513153 109 135 13 
-23.056252 -22.868292 -468.473755 101 136 32 
-23.113075 -22.862526 -468.355652 110 136 41 
-23.171818 -22.858685 -468.276917 113 132 36 
-23.234444 -22.858685 -468.276917 115 129 36 
-23.297070 -22.858685 -468.276917 115 132 36 
-23.357733 -22.856764 -468.237579 125 136 31 
-23.420355 -22.856764 -468.237579 135 138 46 
-23.482977 -22.856764 -468.237579 125 139 56 
-23.545597 -22.856764 -468.237579 123 140 56 
-23.608219 -22.856764 -468.237579 118 142 61 
-23.670839 -22.856764 -468.237579 110 138 52 
-23.733461 -22.856764 -468.237579 116 135 42 
-23.796083 -22.856764 -468.237579 118 135 54 
-23.858704 -22.856764 -468.237579 119 135 67 
-23.921326 -22.856764 -468.237579 122 140 50 
-23.983946 -22.856764 -468.237579 121 139 31 
-24.046568 -22.856764 -468.237579 119 136 43 
-24.115269 -22.862526 -468.355652 122 140 51 
-24.181971 -22.866371 -468.434387 126 142 48 
-24.250732 -22.872139 -468.552551 125 142 46 
-24.317486 -22.875986 -468.631348 127 140 47 
-24.382210 -22.877909 -468.670776 124 137 51 
-24.444889 -22.877909 -468.670776 121 140 45 
-24.509630 -22.879833 -468.710205 119 142 30 
-24.574381 -22.881758 -468.749603 113 140 44 
-24.637072 -22.881758 -468.749603 116 141 65 
-24.699760 -22.881758 -468.749603 122 142 55 
-24.762451 -22.881758 -468.749603 119 139 48 
-24.825140 -22.881758 -468.749603 111 138 42 
-24.887831 -22.881758 -468.749603 118 142 22 
-24.950520 -22.881758 -468.749603 128 143 31 
-25.013210 -22.881758 -468.749603 127 143 44 
-25.075899 -22.881758 -468.749603 136 142 41 
-25.140703 -22.883684 -468.789062 129 143 39 
-25.203400 -22.883684 -468.789062 109 141 37 
-25.266094 -22.883684 -468.789062 114 136 29 
-25.328789 -22.883684 -468.789062 122 137 31 
-25.391483 -22.883684 -468.789062 119 141 37 
-25.454180 -22.883684 -468.789062 109 139 34 
-25.519020 -22.885609 -468.828491 113 136 27 
-25.581720 -22.885609 -468.828491 126 138 25 
-25.644423 -22.885609 -468.828491 123 136 6 
-25.709286 -22.887533 -468.867950 112 134 12 
-25.774158 -22.889460 -468.907379 115 136 36 
-25.839045 -22.891386 -468.946838 126 137 31 
-25.903940 -22.893312 -468.986328 122 133 4 
-25.968847 -22.895239 -469.025787 98 128 10 
-26.038149 -22.901022 -469.144257 102 131 55 
-26.100891 -22.901022 -469.144257 117 135 50 
-26.163633 -22.901022 -469.144257 117 136 36 
-26.230793 -22.904879 -469.223267 120 135 34 
-26.293547 -22.904879 -469.223267 119 131 0 
-26.360739 -22.908737 -469.302307 107 129 3 
-26.425728 -22.910666 -469.341827 108 128 26 
-26.490728 -22.912596 -469.381348 111 132 27 
-26.555738 -22.914526 -469.420898 111 136 20 
