ply
format ascii 1.0
element vertex 1096
property float x
property float y
property float z
property uchar red
property uchar green
property uchar blue
end_header
-16.239397 -7.421912 -472.694122 81 106 0 
-16.284458 -7.413547 -472.161346 75 109 2 
-16.346405 -7.412904 -472.120422 82 110 0 
-16.409763 -7.412904 -472.120422 88 110 9 
-16.473122 -7.412904 -472.120422 88 112 21 
-16.537912 -7.413547 -472.161346 89 115 12 
-16.602716 -7.414190 -472.202301 92 118 8 
-16.666084 -7.414190 -472.202301 94 122 7 
-16.729454 -7.414190 -472.202301 95 124 1 
-16.791367 -7.413547 -472.161346 97 121 5 
-16.853270 -7.412904 -472.120422 97 121 6 
-16.915161 -7.412262 -472.079498 99 125 11 
-16.978514 -7.412262 -472.079498 97 127 10 
-17.040390 -7.411619 -472.038574 93 125 24 
-17.103737 -7.411619 -472.038574 99 122 31 
-17.167084 -7.411619 -472.038574 97 122 58 
-17.230431 -7.411619 -472.038574 115 130 93 
-17.293777 -7.411619 -472.038574 142 143 98 
-17.358629 -7.412262 -472.079498 132 146 120 
-18.770819 -7.547030 -480.662750 111 124 98 
-18.836987 -7.547696 -480.705200 113 126 97 
-18.901495 -7.547696 -480.705200 112 120 96 
-18.967680 -7.548363 -480.747620 112 114 94 
-19.032196 -7.548363 -480.747620 114 114 93 
-19.095026 -7.547696 -480.705200 111 114 90 
-19.157846 -7.547030 -480.662750 106 111 88 
-19.222351 -7.547030 -480.662750 107 110 87 
-19.283451 -7.545698 -480.577911 105 110 83 
-19.346237 -7.545033 -480.535522 105 109 73 
-19.398743 -7.540375 -480.238892 106 109 77 
-19.463190 -7.540375 -480.238892 102 106 82 
-19.525915 -7.539710 -480.196533 88 103 81 
-19.588631 -7.539045 -480.154205 95 104 80 
-19.651335 -7.538381 -480.111877 109 105 79 
-19.717503 -7.539045 -480.154205 103 103 75 
-19.823423 -7.505956 -478.046783 96 103 78 
-19.887575 -7.505956 -478.046783 97 105 74 
-19.951729 -7.505956 -478.046783 96 106 74 
-20.015882 -7.505956 -478.046783 99 107 73 
-20.080036 -7.505956 -478.046783 113 109 72 
-20.144190 -7.505956 -478.046783 104 105 77 
-20.208344 -7.505956 -478.046783 83 98 64 
-20.270718 -7.505297 -478.004822 85 93 14 
-20.334866 -7.505297 -478.004822 79 92 23 
-20.397223 -7.504639 -477.962891 79 92 18 
-20.457773 -7.503322 -477.878998 71 97 24 
-20.514704 -7.500689 -477.711334 78 105 41 
-20.573399 -7.498715 -477.585632 99 111 42 
-20.635681 -7.498058 -477.543762 98 116 56 
-20.697952 -7.497400 -477.501892 109 119 54 
-20.762032 -7.497400 -477.501892 106 117 54 
-20.822460 -7.496086 -477.418182 102 116 51 
-20.884699 -7.495429 -477.376312 103 120 40 
-20.945091 -7.494115 -477.292633 104 120 41 
-21.003620 -7.492145 -477.167175 104 115 41 
-21.063965 -7.490832 -477.083588 105 117 42 
-21.120588 -7.488208 -476.916473 105 118 44 
-21.177172 -7.485586 -476.749451 104 116 46 
-21.237432 -7.484276 -476.665985 104 120 61 
-21.297672 -7.482966 -476.582581 106 119 56 
-21.361629 -7.482966 -476.582581 105 116 42 
-21.425587 -7.482966 -476.582581 96 117 42 
-21.489544 -7.482966 -476.582581 98 119 34 
-21.553499 -7.482966 -476.582581 102 117 37 
-21.615566 -7.482311 -476.540863 102 116 52 
-21.677620 -7.481657 -476.499176 104 117 49 
-21.743467 -7.482311 -476.540863 104 116 39 
-21.807419 -7.482311 -476.540863 103 117 41 
-21.871370 -7.482311 -476.540863 103 114 50 
-21.925730 -7.479039 -476.332458 100 111 47 
-21.983885 -7.477077 -476.207520 100 109 26 
-22.047791 -7.477077 -476.207520 94 106 28 
-22.113630 -7.477731 -476.249146 94 106 48 
-22.177544 -7.477731 -476.249146 97 105 45 
-22.237566 -7.476423 -476.165863 95 103 32 
-22.301468 -7.476423 -476.165863 82 99 30 
-22.363413 -7.475770 -476.124237 81 90 0 
-22.425348 -7.475116 -476.082611 62 84 2 
-22.489237 -7.475116 -476.082611 62 66 0 
-22.551157 -7.474463 -476.041016 47 49 2 
-22.615040 -7.474463 -476.041016 48 55 47 
-22.678925 -7.474463 -476.041016 45 59 44 
-22.744797 -7.475116 -476.082611 45 50 25 
-22.808687 -7.475116 -476.082611 45 50 28 
-22.872578 -7.475116 -476.082611 47 59 60 
-22.936466 -7.475116 -476.082611 61 75 59 
-23.000357 -7.475116 -476.082611 62 89 70 
-23.064247 -7.475116 -476.082611 99 103 69 
-23.126116 -7.474463 -476.041016 98 113 61 
-23.189999 -7.474463 -476.041016 113 114 61 
-23.253883 -7.474463 -476.041016 112 117 50 
-23.317768 -7.474463 -476.041016 106 113 51 
-23.381653 -7.474463 -476.041016 106 112 55 
-23.445536 -7.474463 -476.041016 104 108 56 
-23.507366 -7.473809 -475.999390 104 105 68 
-23.571245 -7.473809 -475.999390 107 107 68 
-23.635122 -7.473809 -475.999390 107 109 50 
-23.701073 -7.474463 -476.041016 107 111 50 
-23.764957 -7.474463 -476.041016 107 112 66 
-23.828842 -7.474463 -476.041016 107 110 66 
-23.892727 -7.474463 -476.041016 107 107 53 
-23.958706 -7.475116 -476.082611 107 104 53 
-24.026796 -7.476423 -476.165863 107 103 48 
-24.092804 -7.477077 -476.207520 104 103 48 
-24.156710 -7.477077 -476.207520 103 105 51 
-24.222734 -7.477731 -476.249146 112 108 51 
-24.286648 -7.477731 -476.249146 112 113 40 
-24.350559 -7.477731 -476.249146 109 111 39 
-24.414471 -7.477731 -476.249146 109 110 58 
-24.480524 -7.478385 -476.290802 111 111 58 
-24.544443 -7.478385 -476.290802 112 111 70 
-24.610512 -7.479039 -476.332458 106 116 74 
-24.683071 -7.481657 -476.499176 105 113 13 
-24.751348 -7.482966 -476.582581 100 104 7 
-24.817478 -7.483621 -476.624268 100 104 61 
-24.883617 -7.484276 -476.665985 108 105 64 
-24.947586 -7.484276 -476.665985 108 107 60 
-25.013744 -7.484931 -476.707733 106 108 59 
-25.077717 -7.484931 -476.707733 106 105 80 
-25.141691 -7.484931 -476.707733 108 108 82 
-25.207872 -7.485586 -476.749451 109 108 74 
-25.276276 -7.486897 -476.832947 101 108 76 
-25.342485 -7.487553 -476.874695 100 111 46 
-25.408707 -7.488208 -476.916473 99 106 41 
-25.477171 -7.489520 -477.000000 98 105 62 
-25.547897 -7.491488 -477.125366 107 110 63 
-25.620905 -7.494115 -477.292633 108 109 69 
-25.687210 -7.494772 -477.334473 103 110 70 
-25.753525 -7.495429 -477.376312 103 110 65 
-25.822115 -7.496743 -477.460022 102 96 63 
-25.888460 -7.497400 -477.501892 101 93 79 
-25.952539 -7.497400 -477.501892 103 99 80 
-26.016621 -7.497400 -477.501892 102 99 81 
3.854156 -7.329214 -470.814301 183 180 70 
3.791300 -7.329847 -470.855011 176 181 29 
3.728757 -7.331115 -470.936432 174 184 86 
3.665558 -7.331115 -470.936432 165 186 98 
3.602358 -7.331115 -470.936432 164 187 52 
3.539159 -7.331115 -470.936432 157 181 49 
3.476260 -7.331749 -470.977173 160 174 10 
3.413941 -7.333652 -471.099396 132 163 0 
3.351010 -7.334286 -471.140167 124 143 2 
3.287784 -7.334286 -471.140167 119 133 0 
3.224836 -7.334921 -471.180908 117 130 20 
3.161604 -7.334921 -471.180908 112 132 29 
3.098372 -7.334921 -471.180908 108 138 20 
3.035402 -7.335556 -471.221680 114 133 17 
2.972422 -7.336190 -471.262451 115 129 26 
2.909431 -7.336825 -471.303253 116 133 29 
2.846429 -7.337460 -471.344055 118 137 29 
2.783656 -7.338730 -471.425659 111 139 37 
2.721334 -7.341272 -471.588928 106 137 11 
2.659659 -7.345725 -471.874969 113 137 0 
2.596559 -7.346362 -471.915863 116 139 10 
2.533448 -7.346999 -471.956757 112 138 10 
2.470326 -7.347635 -471.997650 110 138 24 
2.407192 -7.348272 -472.038574 110 141 41 
2.343845 -7.348272 -472.038574 109 142 12 
2.280498 -7.348272 -472.038574 111 143 0 
2.217343 -7.348909 -472.079498 111 142 1 
2.153804 -7.348272 -472.038574 114 142 0 
2.090457 -7.348272 -472.038574 116 144 6 
2.026934 -7.347635 -471.997650 115 139 9 
1.963422 -7.346999 -471.956757 115 137 20 
1.899757 -7.345725 -471.874969 111 140 34 
1.836431 -7.345725 -471.874969 106 139 22 
1.772185 -7.341908 -471.629791 111 140 20 
1.708745 -7.341272 -471.588928 114 141 8 
1.645315 -7.340637 -471.548096 113 140 0 
1.582034 -7.340637 -471.548096 115 139 0 
1.518884 -7.341272 -471.588928 111 135 0 
1.455597 -7.341272 -471.588928 106 133 0 
1.392310 -7.341272 -471.588928 108 135 0 
1.329023 -7.341272 -471.588928 110 136 8 
1.265737 -7.341272 -471.588928 108 135 17 
1.202450 -7.341272 -471.588928 107 136 19 
1.139163 -7.341272 -471.588928 106 137 21 
1.075969 -7.341908 -471.629791 103 135 30 
1.015844 -7.364870 -473.104767 108 137 48 
0.952602 -7.366790 -473.228119 114 137 32 
0.889095 -7.366790 -473.228119 112 136 19 
0.825660 -7.367430 -473.269226 111 137 15 
0.762214 -7.368070 -473.310364 110 139 0 
0.698757 -7.368711 -473.351501 108 142 12 
0.635178 -7.368070 -473.310364 109 144 42 
0.571661 -7.368070 -473.310364 111 145 22 
0.508010 -7.366149 -473.186981 110 145 0 
0.444586 -7.367430 -473.269226 110 142 0 
0.380942 -7.364870 -473.104767 111 141 0 
0.317121 -7.357200 -472.612091 113 142 0 
0.253609 -7.354647 -472.448090 113 140 0 
0.190173 -7.353371 -472.366119 114 139 0 
0.126804 -7.354647 -472.448090 113 138 0 
0.063529 -7.369351 -473.392639 113 139 0 
-0.000000 -7.371274 -473.516144 114 141 0 
-0.699061 -7.371914 -473.557312 108 141 0 
-0.762413 -7.369992 -473.433807 109 143 0 
-0.812457 -7.249617 -465.701141 113 145 0 
-0.874804 -7.248377 -465.621490 112 142 0 
-0.937210 -7.247757 -465.581696 110 142 0 
-0.999605 -7.247138 -465.541901 110 139 0 
-1.062171 -7.247757 -465.581696 109 134 0 
-1.125614 -7.253959 -465.980072 109 136 0 
-1.188250 -7.254580 -466.019928 113 138 0 
-1.250897 -7.255200 -466.059814 113 139 4 
-1.313666 -7.256442 -466.139618 113 140 4 
-1.564424 -7.258927 -466.299255 123 148 51 
-1.627001 -7.258927 -466.299255 123 151 64 
-1.689578 -7.258927 -466.299255 127 149 65 
-1.752455 -7.260171 -466.379120 127 151 93 
-1.814732 -7.258927 -466.299255 123 151 92 
-1.877309 -7.258927 -466.299255 123 149 90 
-1.939886 -7.258927 -466.299255 121 145 89 
-2.121984 -7.239711 -465.064819 121 145 84 
-2.183090 -7.235386 -464.786987 118 142 84 
-2.245081 -7.234151 -464.707672 118 139 76 
-2.307445 -7.234151 -464.707672 118 142 76 
-2.370010 -7.234768 -464.747314 118 142 64 
-2.432379 -7.234768 -464.747314 115 142 64 
-2.494535 -7.234151 -464.707672 115 142 70 
-2.556898 -7.234151 -464.707672 115 141 71 
-2.618368 -7.231683 -464.549103 115 141 67 
-2.680481 -7.231066 -464.509460 115 137 68 
-2.743052 -7.231683 -464.549103 116 136 37 
-2.804198 -7.228600 -464.351044 111 137 31 
-2.866513 -7.228600 -464.351044 111 135 70 
-2.927581 -7.225519 -464.153168 104 131 74 
-2.989870 -7.225519 -464.153168 104 131 63 
-3.052159 -7.225519 -464.153168 101 134 65 
-3.113917 -7.224288 -464.074066 101 131 31 
-3.175113 -7.221826 -463.915924 99 128 27 
-3.235166 -7.216908 -463.599976 98 130 30 
-3.295697 -7.213223 -463.363312 107 130 29 
-3.357594 -7.212610 -463.323883 108 130 34 
-3.418899 -7.210769 -463.205658 107 133 33 
-3.480173 -7.208930 -463.087494 107 130 55 
-3.542018 -7.208317 -463.048126 101 127 65 
-3.604158 -7.208317 -463.048126 100 127 30 
-3.666611 -7.208930 -463.087494 99 128 27 
-3.728757 -7.208930 -463.087494 98 128 9 
-3.791870 -7.210769 -463.205658 101 129 3 
-3.854032 -7.210769 -463.205658 102 129 4 
-3.916194 -7.210769 -463.205658 105 129 0 
-3.978694 -7.211383 -463.245056 107 130 22 
-4.041205 -7.211996 -463.284485 99 131 28 
-4.104774 -7.214451 -463.442169 95 134 36 
-4.167322 -7.215065 -463.481628 106 138 46 
-4.229881 -7.215679 -463.521057 110 137 19 
-4.293547 -7.218137 -463.678925 104 134 12 
-4.355772 -7.218137 -463.678925 101 135 3 
-4.417997 -7.218137 -463.678925 110 136 0 
-4.479460 -7.216908 -463.599976 114 135 0 
-4.541288 -7.216293 -463.560516 107 135 0 
-4.725503 -7.212610 -463.323883 99 136 0 
-4.785238 -7.208930 -463.087494 101 135 0 
-4.847384 -7.208930 -463.087494 100 134 11 
-4.909112 -7.208317 -463.048126 103 131 20 
-4.971253 -7.208317 -463.048126 105 133 8 
-5.032110 -7.206479 -462.930054 105 135 0 
-5.090773 -7.201581 -462.615448 106 133 14 
-5.151105 -7.199135 -462.458313 101 133 25 
-5.213167 -7.199135 -462.458313 100 135 11 
-5.272989 -7.196080 -462.262024 96 132 5 
-5.335025 -7.196080 -462.262024 89 131 5 
-5.397060 -7.196080 -462.262024 100 136 0 
-5.459558 -7.196691 -462.301270 107 137 18 
-5.521599 -7.196691 -462.301270 103 135 39 
-5.583639 -7.196691 -462.301270 102 133 13 
-5.645679 -7.196691 -462.301270 101 132 0 
-5.707720 -7.196691 -462.301270 101 133 3 
-5.769271 -7.196080 -462.262024 99 133 3 
-5.830316 -7.194858 -462.183563 96 131 2 
-5.890341 -7.192417 -462.026733 103 131 1 
-5.952850 -7.193027 -462.065918 108 133 2 
-6.014859 -7.193027 -462.065918 108 136 3 
-6.076868 -7.193027 -462.065918 112 137 3 
-6.138356 -7.192417 -462.026733 107 138 3 
-6.200885 -7.193027 -462.065918 102 138 3 
-6.262894 -7.193027 -462.065918 109 138 3 
-6.326513 -7.194858 -462.183563 115 137 6 
-6.388538 -7.194858 -462.183563 117 139 10 
-6.450562 -7.194858 -462.183563 120 143 7 
-6.512587 -7.194858 -462.183563 122 146 4 
-6.574612 -7.194858 -462.183563 126 145 8 
-6.636637 -7.194858 -462.183563 124 145 6 
-6.698661 -7.194858 -462.183563 123 146 15 
-6.758965 -7.193027 -462.065918 122 148 21 
-6.820974 -7.193027 -462.065918 121 150 34 
-6.882983 -7.193027 -462.065918 122 152 56 
-6.944992 -7.193027 -462.065918 123 150 51 
-7.007000 -7.193027 -462.065918 123 150 55 
-7.068409 -7.192417 -462.026733 125 150 50 
-7.130413 -7.192417 -462.026733 121 148 40 
-7.192417 -7.192417 -462.026733 115 147 45 
-7.254420 -7.192417 -462.026733 116 144 51 
-7.316424 -7.192417 -462.026733 115 143 50 
-7.378428 -7.192417 -462.026733 112 143 49 
-7.440431 -7.192417 -462.026733 106 141 50 
-7.502435 -7.192417 -462.026733 106 137 48 
-7.564438 -7.192417 -462.026733 106 133 54 
-7.625795 -7.191806 -461.987549 104 129 66 
-7.697588 -7.200970 -462.576141 97 126 63 
-7.765602 -7.206479 -462.930054 101 127 63 
-7.891193 -7.207704 -463.008759 105 127 65 
-7.953329 -7.207704 -463.008759 104 126 63 
-8.016146 -7.208317 -463.048126 106 124 59 
-8.078286 -7.208317 -463.048126 109 127 62 
-8.141119 -7.208930 -463.087494 108 128 68 
-8.203265 -7.208930 -463.087494 108 126 65 
-8.265411 -7.208930 -463.087494 108 125 61 
-8.327557 -7.208930 -463.087494 109 125 62 
-8.389703 -7.208930 -463.087494 109 128 59 
-8.451849 -7.208930 -463.087494 111 127 61 
-8.628454 -7.305844 -469.313080 110 124 70 
-8.693683 -7.307734 -469.434448 109 125 66 
-8.756680 -7.307734 -469.434448 109 128 52 
-8.820438 -7.308363 -469.474915 107 128 56 
-8.884208 -7.308993 -469.515381 108 129 62 
-8.949531 -7.310884 -469.636871 109 126 61 
-9.012556 -7.310884 -469.636871 109 124 62 
-9.075581 -7.310884 -469.636871 116 125 60 
-9.138605 -7.310884 -469.636871 111 121 55 
-9.202424 -7.311515 -469.677368 93 118 55 
-9.399621 -7.317826 -470.082794 100 119 62 
-9.462707 -7.317826 -470.082794 104 119 59 
-9.528258 -7.319722 -470.204559 103 120 51 
-9.591359 -7.319722 -470.204559 100 120 51 
-9.654460 -7.319722 -470.204559 99 118 47 
-9.781507 -7.320354 -470.245148 93 115 52 
-9.842914 -7.319089 -470.163940 95 114 52 
-9.901735 -7.315932 -469.961090 94 117 59 
-9.964804 -7.315932 -469.961090 88 117 56 
-10.027872 -7.315932 -469.961090 89 114 33 
-10.090940 -7.315932 -469.961090 97 117 35 
-10.153132 -7.315300 -469.920532 96 116 44 
-10.217077 -7.315932 -469.961090 89 116 44 
-10.283695 -7.318458 -470.123352 89 116 39 
-10.347678 -7.319089 -470.163940 92 113 40 
-10.415270 -7.322250 -470.367004 92 112 40 
-10.482014 -7.324781 -470.529541 86 112 40 
-10.546982 -7.326047 -470.610870 86 111 38 
-10.611053 -7.326680 -470.651550 91 110 38 
-10.674215 -7.326680 -470.651550 91 111 33 
-10.738304 -7.327313 -470.692230 89 113 33 
-10.802404 -7.327947 -470.732910 89 113 39 
-10.865576 -7.327947 -470.732910 83 112 39 
-10.928748 -7.327947 -470.732910 83 110 17 
-10.991920 -7.327947 -470.732910 87 107 16 
-11.056047 -7.328580 -470.773590 88 104 15 
-11.119226 -7.328580 -470.773590 80 105 15 
-11.182403 -7.328580 -470.773590 80 107 14 
-11.245580 -7.328580 -470.773590 74 107 14 
-11.308757 -7.328580 -470.773590 74 105 1 
-11.377836 -7.332383 -471.017914 74 104 0 
-11.518204 -7.341272 -471.588928 78 108 0 
-11.581491 -7.341272 -471.588928 78 105 4 
-11.650830 -7.345089 -471.834076 81 103 4 
-11.841816 -7.345725 -471.874969 83 99 15 
-11.905141 -7.345725 -471.874969 79 100 17 
-11.924039 -7.318458 -470.123352 78 99 2 
-11.989199 -7.319722 -470.204559 77 98 0 
-12.099310 -7.348272 -472.038574 77 101 1 
-12.162658 -7.348272 -472.038574 76 98 0 
-12.481557 -7.349546 -472.120422 77 94 1 
-12.543828 -7.348909 -472.079498 66 93 0 
-12.608274 -7.349546 -472.120422 66 90 17 
-12.671632 -7.349546 -472.120422 60 89 20 
-12.734989 -7.349546 -472.120422 57 86 21 
-12.800567 -7.350821 -472.202301 64 88 26 
-12.943621 -7.396355 -475.127289 66 89 4 
-13.010787 -7.398291 -475.251678 59 88 0 
-13.074566 -7.398291 -475.251678 57 90 1 
-13.138344 -7.398291 -475.251678 63 89 0 
-13.202123 -7.398291 -475.251678 63 87 1 
-13.265901 -7.398291 -475.251678 72 89 1 
-13.328516 -7.397645 -475.210205 76 89 1 
-13.392289 -7.397645 -475.210205 65 89 0 
-13.456061 -7.397645 -475.210205 61 91 17 
-13.519835 -7.397645 -475.210205 69 90 29 
-13.583608 -7.397645 -475.210205 71 89 5 
-13.647380 -7.397645 -475.210205 67 92 0 
-13.701588 -7.392485 -474.878723 65 93 3 
-13.761717 -7.390552 -474.754517 73 97 3 
-13.825428 -7.390552 -474.754517 76 97 1 
-13.890350 -7.391196 -474.795898 73 94 0 
-13.954068 -7.391196 -474.795898 72 97 0 
-14.016563 -7.390552 -474.754517 74 101 0 
-14.080275 -7.390552 -474.754517 74 98 1 
-14.146453 -7.391840 -474.837311 77 101 0 
-14.211414 -7.392485 -474.878723 76 103 17 
-14.277633 -7.393774 -474.961548 83 101 23 
-14.346377 -7.396355 -475.127289 86 103 36 
-14.412654 -7.397645 -475.210205 86 107 43 
-14.476426 -7.397645 -475.210205 87 106 44 
-14.540199 -7.397645 -475.210205 89 105 47 
-14.601424 -7.396355 -475.127289 89 108 46 
-14.642192 -7.384758 -474.382324 92 108 50 
-14.691775 -7.377688 -473.928223 95 108 34 
-14.747676 -7.373838 -473.680878 92 106 25 
-14.809956 -7.373197 -473.639679 89 105 32 
-14.869637 -7.371274 -473.516144 91 108 33 
-14.930587 -7.369992 -473.433807 94 108 33 
-14.991514 -7.368711 -473.351501 89 108 36 
-15.052422 -7.367430 -473.269226 87 108 28 
-15.115933 -7.367430 -473.269226 83 105 30 
-15.180765 -7.368070 -473.310364 82 101 11 
-15.245608 -7.368711 -473.351501 74 97 0 
-15.309132 -7.368711 -473.351501 68 94 1 
-15.372655 -7.368711 -473.351501 71 96 0 
-15.437520 -7.369351 -473.392639 72 97 0 
-15.499701 -7.368711 -473.351501 68 102 0 
-15.563225 -7.368711 -473.351501 62 105 0 
-15.622675 -7.366790 -473.228119 71 99 0 
-15.682094 -7.364870 -473.104767 77 97 0 
-15.745584 -7.364870 -473.104767 76 98 0 
-15.811821 -7.366149 -473.186981 76 99 0 
-15.875322 -7.366149 -473.186981 78 100 0 
-15.927752 -7.361033 -472.858307 80 101 0 
-15.991209 -7.361033 -472.858307 79 104 0 
-16.050486 -7.359116 -472.735168 77 106 0 
-16.113926 -7.359116 -472.735168 81 106 0 
-16.173155 -7.357200 -472.612091 84 108 0 
-16.235170 -7.356562 -472.571075 82 108 0 
-16.281635 -7.348909 -472.079498 80 110 0 
-16.344988 -7.348909 -472.079498 84 111 2 
-16.405497 -7.347635 -471.997650 87 111 1 
-16.470264 -7.348272 -472.038574 88 112 0 
-16.535046 -7.348909 -472.079498 88 112 16 
-16.598398 -7.348909 -472.079498 92 117 50 
-16.661751 -7.348909 -472.079498 96 123 23 
-16.725103 -7.348909 -472.079498 96 124 0 
-16.789911 -7.349546 -472.120422 97 123 16 
-16.851809 -7.348909 -472.079498 98 122 33 
-16.915161 -7.348909 -472.079498 99 122 17 
-16.977043 -7.348272 -472.038574 99 123 0 
-17.040390 -7.348272 -472.038574 98 124 20 
-17.103737 -7.348272 -472.038574 101 123 36 
-17.167084 -7.348272 -472.038574 99 125 60 
-17.230431 -7.348272 -472.038574 114 130 99 
-17.295277 -7.348909 -472.079498 134 136 97 
-17.358629 -7.348909 -472.079498 127 138 112 
-17.421982 -7.348909 -472.079498 128 135 105 
-17.485336 -7.348909 -472.079498 126 132 101 
-17.988825 -7.479225 -480.450745 126 133 101 
-18.059675 -7.481865 -480.620331 125 132 87 
-18.117777 -7.479225 -480.450745 124 131 98 
-18.628656 -7.477246 -480.323608 117 121 96 
-18.698063 -7.479225 -480.450745 114 119 88 
-18.762539 -7.479225 -480.450745 108 120 91 
-18.830338 -7.480545 -480.535522 109 118 93 
-18.894825 -7.480545 -480.535522 109 113 92 
-18.960985 -7.481205 -480.577911 108 106 91 
-19.025478 -7.481205 -480.577911 104 102 89 
-19.089972 -7.481205 -480.577911 104 106 82 
-19.152775 -7.480545 -480.535522 101 105 82 
-19.215567 -7.479885 -480.493134 102 104 80 
-19.278347 -7.479225 -480.450745 102 106 78 
-19.336000 -7.476586 -480.281250 101 106 69 
-19.397032 -7.475268 -480.196533 98 105 72 
-19.459759 -7.474609 -480.154205 98 104 76 
-19.522472 -7.473950 -480.111877 99 99 74 
-19.586903 -7.473950 -480.111877 99 101 72 
-19.649601 -7.473291 -480.069550 99 104 71 
-19.717503 -7.474609 -480.154205 98 105 65 
-19.823423 -7.441803 -478.046783 95 99 71 
-19.887575 -7.441803 -478.046783 96 101 67 
-19.951729 -7.441803 -478.046783 98 103 68 
-20.017639 -7.442456 -478.088745 98 104 68 
-20.081799 -7.442456 -478.088745 102 105 68 
-20.144190 -7.441803 -478.046783 99 102 76 
-20.208344 -7.441803 -478.046783 89 93 64 
-20.272497 -7.441803 -478.046783 88 93 22 
-20.336651 -7.441803 -478.046783 76 93 27 
-20.399014 -7.441149 -478.004822 79 92 14 
-20.459570 -7.439843 -477.920929 81 98 21 
-20.518305 -7.437885 -477.795135 83 99 34 
-20.578814 -7.436580 -477.711334 97 107 37 
-20.637489 -7.434624 -477.585632 96 116 67 
-20.701582 -7.434624 -477.585632 102 119 60 
-20.765673 -7.434624 -477.585632 101 119 51 
-20.827938 -7.433972 -477.543762 100 117 49 
-20.890192 -7.433320 -477.501892 100 118 37 
-20.950600 -7.432017 -477.418182 101 119 39 
-21.010984 -7.430714 -477.334473 101 118 44 
-21.071348 -7.429411 -477.250824 104 120 44 
-21.127989 -7.426808 -477.083588 102 122 42 
-21.182734 -7.423556 -476.874695 95 119 46 
-21.241150 -7.421607 -476.749451 96 119 67 
-21.305130 -7.421607 -476.749451 99 118 61 
-21.367239 -7.420957 -476.707733 99 118 44 
-21.431213 -7.420957 -476.707733 97 119 44 
-21.497068 -7.421607 -476.749451 98 116 31 
-21.561047 -7.421607 -476.749451 104 114 35 
-21.625027 -7.421607 -476.749451 104 120 52 
-21.689007 -7.421607 -476.749451 112 120 49 
-21.756794 -7.422906 -476.832947 110 118 39 
-21.822697 -7.423556 -476.874695 104 119 41 
-21.884775 -7.422906 -476.832947 104 119 51 
-21.943003 -7.420957 -476.707733 99 115 49 
-21.989653 -7.415115 -476.332458 99 114 23 
-22.053576 -7.415115 -476.332458 97 109 27 
-22.117500 -7.415115 -476.332458 97 105 50 
-22.181423 -7.415115 -476.332458 97 104 47 
-22.239511 -7.413170 -476.207520 96 102 33 
-22.301468 -7.412522 -476.165863 85 100 32 
-22.363413 -7.411874 -476.124237 86 92 0 
-22.427309 -7.411874 -476.124237 81 87 0 
-22.491203 -7.411874 -476.124237 79 75 0 
-22.551157 -7.410578 -476.041016 38 56 2 
-22.615040 -7.410578 -476.041016 40 48 47 
-22.680908 -7.411226 -476.082611 46 54 44 
-22.744797 -7.411226 -476.082611 47 57 25 
-22.808687 -7.411226 -476.082611 73 57 27 
-22.874577 -7.411874 -476.124237 74 78 60 
-22.938473 -7.411874 -476.124237 115 94 59 
-23.002367 -7.411874 -476.124237 114 99 69 
-23.066263 -7.411874 -476.124237 121 113 69 
-23.128136 -7.411226 -476.082611 120 124 61 
-23.192026 -7.411226 -476.082611 118 125 61 
-23.253883 -7.410578 -476.041016 118 120 51 
-23.317768 -7.410578 -476.041016 115 117 52 
-23.381653 -7.410578 -476.041016 115 112 55 
-23.445536 -7.410578 -476.041016 110 108 55 
-23.509420 -7.410578 -476.041016 110 108 68 
-23.573305 -7.410578 -476.041016 114 110 68 
-23.637190 -7.410578 -476.041016 114 114 52 
-23.701073 -7.410578 -476.041016 110 115 53 
-23.764957 -7.410578 -476.041016 110 117 65 
-23.828842 -7.410578 -476.041016 112 117 65 
-23.894815 -7.411226 -476.082611 112 115 53 
-23.960800 -7.411874 -476.124237 109 112 52 
-24.026796 -7.412522 -476.165863 109 106 49 
-24.092804 -7.413170 -476.207520 106 105 49 
-24.160936 -7.414467 -476.290802 106 109 53 
-24.224854 -7.414467 -476.290802 105 112 53 
-24.288771 -7.414467 -476.290802 105 110 46 
-24.352690 -7.414467 -476.290802 105 108 45 
-24.420877 -7.415764 -476.374115 105 106 56 
-24.489092 -7.417062 -476.457489 115 106 56 
-24.553032 -7.417062 -476.457489 116 112 66 
-24.621281 -7.418360 -476.540863 111 115 69 
-24.693874 -7.420957 -476.707733 110 114 31 
-24.760015 -7.421607 -476.749451 109 109 27 
-24.826168 -7.422256 -476.791199 109 106 59 
-24.890154 -7.422256 -476.791199 106 108 60 
-24.954138 -7.422256 -476.791199 105 109 64 
-25.020313 -7.422906 -476.832947 116 108 64 
-25.084305 -7.422906 -476.832947 118 111 74 
-25.148294 -7.422906 -476.832947 109 114 75 
-25.214493 -7.423556 -476.874695 109 103 72 
-25.280703 -7.424207 -476.916473 95 102 73 
-25.346926 -7.424857 -476.958221 93 103 54 
-25.424292 -7.428761 -477.208984 104 98 51 
-25.495035 -7.430714 -477.334473 104 107 65 
-25.561335 -7.431365 -477.376312 105 110 66 
-25.627644 -7.432017 -477.418182 107 101 67 
-25.691713 -7.432017 -477.418182 100 102 67 
-25.758039 -7.432668 -477.460022 99 100 70 
-25.824379 -7.433320 -477.501892 95 92 69 
-25.888460 -7.433320 -477.501892 95 90 80 
3.853822 -7.265403 -470.773590 193 171 73 
3.790973 -7.266031 -470.814301 173 174 32 
3.728112 -7.266659 -470.855011 167 185 87 
3.664924 -7.266659 -470.855011 166 189 101 
3.601735 -7.266659 -470.855011 168 181 53 
3.538853 -7.267287 -470.895721 152 174 50 
3.475960 -7.267916 -470.936432 150 168 11 
3.413351 -7.269173 -471.017914 136 156 0 
3.350720 -7.270431 -471.099396 134 144 2 
3.287784 -7.271060 -471.140167 120 137 0 
3.224557 -7.271060 -471.140167 113 132 19 
3.161604 -7.271689 -471.180908 120 134 29 
3.098372 -7.271689 -471.180908 123 140 20 
3.035402 -7.272318 -471.221680 112 135 17 
2.972165 -7.272318 -471.221680 107 133 26 
2.909179 -7.272947 -471.262451 113 138 29 
2.846182 -7.273577 -471.303253 117 137 28 
2.783175 -7.274206 -471.344055 109 137 34 
2.720392 -7.275465 -471.425659 105 135 10 
2.658047 -7.277986 -471.588928 109 134 0 
2.596334 -7.282400 -471.874969 110 136 10 
2.533228 -7.283031 -471.915863 109 137 11 
2.470112 -7.283662 -471.956757 109 136 21 
2.406775 -7.283662 -471.956757 108 137 35 
2.343439 -7.283662 -471.956757 106 138 11 
2.280301 -7.284294 -471.997650 111 137 0 
2.217151 -7.284925 -472.038574 114 138 2 
2.153617 -7.284294 -471.997650 113 141 0 
2.090276 -7.284294 -471.997650 113 142 6 
2.026758 -7.283662 -471.956757 113 138 6 
1.963252 -7.283031 -471.915863 113 138 18 
1.899757 -7.282400 -471.874969 113 139 33 
1.835477 -7.278616 -471.629791 114 141 20 
1.772031 -7.277986 -471.588928 114 148 15 
1.708449 -7.276725 -471.507263 116 142 8 
1.645173 -7.276725 -471.507263 111 134 0 
1.582034 -7.277356 -471.548096 107 136 3 
1.518752 -7.277356 -471.548096 106 135 3 
1.455471 -7.277356 -471.548096 102 134 3 
1.392310 -7.277986 -471.588928 107 136 0 
1.329023 -7.277986 -471.588928 113 137 8 
1.265627 -7.277356 -471.548096 109 135 17 
1.202450 -7.277986 -471.588928 106 137 15 
1.139163 -7.277986 -471.588928 108 137 13 
1.075969 -7.278616 -471.629791 106 136 19 
1.012765 -7.279246 -471.670624 110 138 31 
0.949796 -7.281769 -471.834076 118 136 21 
0.886630 -7.283031 -471.915863 113 135 11 
0.825588 -7.303283 -473.228119 108 135 10 
0.762082 -7.303283 -473.228119 110 133 0 
0.698514 -7.302648 -473.186981 109 138 10 
0.635013 -7.302648 -473.186981 112 144 35 
0.571462 -7.302014 -473.145874 119 144 20 
0.507702 -7.298209 -472.899353 116 143 3 
0.443930 -7.293143 -472.571075 114 141 5 
0.380281 -7.288715 -472.284180 113 140 0 
0.316873 -7.288084 -472.243225 111 142 1 
0.253477 -7.287452 -472.202301 112 142 2 
0.190107 -7.287452 -472.202301 113 139 2 
0.126738 -7.287452 -472.202301 112 137 0 
0.063369 -7.287452 -472.202301 113 138 3 
-0.000000 -7.287452 -472.202301 112 139 9 
-0.749960 -7.187120 -465.701141 107 143 2 
-0.812457 -7.187120 -465.701141 111 142 3 
-0.874804 -7.185891 -465.621490 110 136 2 
-0.937290 -7.185891 -465.621490 108 137 4 
-0.999776 -7.185891 -465.621490 108 139 9 
-1.062444 -7.187120 -465.701141 104 136 10 
-1.125614 -7.191424 -465.980072 106 134 19 
-1.188352 -7.192656 -466.059814 112 137 22 
-1.251111 -7.193887 -466.139618 112 139 39 
-1.313779 -7.194502 -466.179504 120 140 38 
-1.376929 -7.197583 -466.379120 120 144 42 
-1.439517 -7.197583 -466.379120 129 144 45 
-1.502104 -7.197583 -466.379120 129 146 63 
-1.564558 -7.196967 -466.339203 135 147 63 
-1.627280 -7.197583 -466.379120 135 149 68 
-1.689867 -7.197583 -466.379120 136 149 69 
-1.752605 -7.198200 -466.419067 136 149 75 
-1.815198 -7.198200 -466.419067 121 149 75 
-1.877470 -7.196967 -466.339203 121 146 80 
-1.940052 -7.196967 -466.339203 117 145 80 
-2.121803 -7.176687 -465.025116 120 143 70 
-2.182904 -7.172400 -464.747314 114 144 70 
-2.244124 -7.168729 -464.509460 114 139 63 
-2.306264 -7.168118 -464.469849 117 135 64 
-2.368999 -7.169341 -464.549103 117 138 46 
-2.432171 -7.171788 -464.707672 113 140 45 
-2.493684 -7.169341 -464.549103 112 142 53 
-2.555808 -7.168729 -464.509460 113 140 54 
-2.617252 -7.166284 -464.351044 113 137 47 
-2.677284 -7.160179 -463.955444 114 136 47 
-2.739547 -7.160179 -463.955444 115 139 47 
-2.801332 -7.158959 -463.876404 111 135 47 
-2.864316 -7.160789 -463.994965 112 130 48 
-2.926583 -7.160789 -463.994965 100 130 49 
-2.988851 -7.160789 -463.994965 99 130 32 
-3.051119 -7.160789 -463.994965 98 130 30 
-3.112591 -7.158959 -463.876404 97 127 31 
-3.173761 -7.156521 -463.718414 96 125 33 
-3.234615 -7.153475 -463.521057 95 128 11 
-3.295697 -7.151041 -463.363312 109 130 3 
-3.356737 -7.148608 -463.205658 112 131 37 
-3.418027 -7.146784 -463.087494 106 132 48 
-3.479877 -7.146176 -463.048126 107 129 17 
-3.542018 -7.146176 -463.048126 102 127 13 
-3.603852 -7.145569 -463.008759 101 127 7 
-3.665987 -7.145569 -463.008759 99 127 4 
-3.728757 -7.146784 -463.087494 97 129 2 
-3.790903 -7.146784 -463.087494 102 127 1 
-3.853049 -7.146784 -463.087494 103 128 1 
-3.915195 -7.146784 -463.087494 105 128 1 
-3.977341 -7.146784 -463.087494 108 129 3 
-4.040174 -7.148000 -463.166260 98 131 2 
-4.102679 -7.148608 -463.205658 93 135 9 
-4.164841 -7.148608 -463.205658 106 137 13 
-4.229521 -7.152866 -463.481628 112 135 5 
-4.416493 -7.153475 -463.521057 111 136 41 
-4.478697 -7.153475 -463.521057 116 135 17 
-4.540902 -7.153475 -463.521057 108 134 11 
-4.784831 -7.146176 -463.048126 100 133 29 
-4.846560 -7.145569 -463.008759 99 132 13 
-4.908278 -7.144961 -462.969391 103 131 8 
-4.970408 -7.144961 -462.969391 106 134 9 
-5.032110 -7.144354 -462.930054 105 136 9 
-5.090773 -7.139499 -462.615448 106 136 6 
-5.151105 -7.137074 -462.458313 102 134 1 
-5.211839 -7.135256 -462.340515 100 132 8 
-5.272989 -7.134045 -462.262024 96 131 14 
-5.335025 -7.134045 -462.262024 90 132 4 
-5.397060 -7.134045 -462.262024 100 134 0 
-5.459558 -7.134650 -462.301270 107 134 0 
-5.521599 -7.134650 -462.301270 103 134 0 
-5.583639 -7.134650 -462.301270 102 134 1 
-5.645679 -7.134650 -462.301270 102 133 0 
-5.707720 -7.134650 -462.301270 102 134 16 
-5.768781 -7.133439 -462.222809 100 134 42 
-5.828338 -7.130413 -462.026733 98 132 15 
-5.889842 -7.129808 -461.987549 103 134 0 
-5.951840 -7.129808 -461.987549 108 138 9 
-6.014349 -7.130413 -462.026733 108 140 15 
-6.076868 -7.131018 -462.065918 111 141 19 
-6.138356 -7.130413 -462.026733 108 143 25 
-6.200885 -7.131018 -462.065918 104 145 26 
-6.262894 -7.131018 -462.065918 110 145 31 
-6.326513 -7.132833 -462.183563 113 145 27 
-6.388538 -7.132833 -462.183563 116 146 21 
-6.450562 -7.132833 -462.183563 119 149 28 
-6.512587 -7.132833 -462.183563 120 150 36 
-6.574612 -7.132833 -462.183563 124 147 32 
-6.636637 -7.132833 -462.183563 121 149 29 
-6.698661 -7.132833 -462.183563 119 154 32 
-6.758965 -7.131018 -462.065918 120 150 31 
-6.820974 -7.131018 -462.065918 119 146 41 
-6.882983 -7.131018 -462.065918 119 148 54 
-6.944992 -7.131018 -462.065918 120 149 57 
-7.007000 -7.131018 -462.065918 119 145 70 
-7.068409 -7.130413 -462.026733 119 139 63 
-7.130413 -7.130413 -462.026733 117 138 54 
-7.192417 -7.130413 -462.026733 115 135 61 
-7.254420 -7.130413 -462.026733 115 135 73 
-7.315803 -7.129808 -461.987549 113 136 68 
-7.377176 -7.129203 -461.948334 111 135 66 
-7.439169 -7.129203 -461.948334 107 134 61 
-7.500525 -7.128599 -461.909149 107 133 50 
-7.563155 -7.129203 -461.948334 107 134 53 
-7.625148 -7.129203 -461.948334 106 130 51 
-7.687793 -7.129808 -461.987549 102 128 55 
-7.749792 -7.129808 -461.987549 104 128 64 
-7.953329 -7.145569 -463.008759 105 124 67 
-8.015464 -7.145569 -463.008759 106 124 57 
-8.078286 -7.146176 -463.048126 108 126 61 
-8.140427 -7.146176 -463.048126 107 126 67 
-8.202567 -7.146176 -463.048126 105 127 67 
-8.265411 -7.146784 -463.087494 107 126 71 
-8.326849 -7.146176 -463.048126 111 127 67 
-8.388989 -7.146176 -463.048126 110 128 55 
-8.451849 -7.146784 -463.087494 109 126 60 
-8.631429 -7.245360 -469.474915 109 126 77 
-8.694432 -7.245360 -469.474915 104 128 69 
-8.757436 -7.245360 -469.474915 105 129 46 
-8.820438 -7.245360 -469.474915 106 127 51 
-8.884208 -7.245985 -469.515381 105 126 56 
-8.948759 -7.247234 -469.596375 101 124 56 
-9.012556 -7.247859 -469.636871 103 124 60 
-9.075581 -7.247859 -469.636871 110 124 58 
-9.138605 -7.247859 -469.636871 107 120 53 
-9.202424 -7.248485 -469.677368 94 119 53 
-9.266253 -7.249110 -469.717865 96 120 47 
-9.334120 -7.252863 -469.961090 98 119 47 
-9.397188 -7.252863 -469.961090 98 118 43 
-9.465158 -7.256620 -470.204559 102 121 45 
-9.528258 -7.256620 -470.204559 101 121 53 
-9.591359 -7.256620 -470.204559 98 119 52 
-9.654460 -7.256620 -470.204559 98 118 55 
-9.717562 -7.256620 -470.204559 95 119 54 
-9.780663 -7.256620 -470.204559 95 119 51 
-9.844613 -7.257247 -470.245148 97 117 51 
-9.907720 -7.257247 -470.245148 96 117 59 
-9.970826 -7.257247 -470.245148 92 115 56 
-10.034800 -7.257874 -470.285767 92 116 12 
-10.097912 -7.257874 -470.285767 95 118 16 
-10.159268 -7.256620 -470.204559 95 117 53 
-10.221487 -7.255994 -470.163940 91 118 50 
-10.284583 -7.255994 -470.163940 91 116 36 
-10.351254 -7.258501 -470.326385 95 113 37 
-10.418870 -7.261636 -470.529541 95 112 31 
-10.483826 -7.262891 -470.610870 88 112 31 
-10.548804 -7.264147 -470.692230 88 112 32 
-10.611971 -7.264147 -470.692230 92 108 33 
-10.676061 -7.264775 -470.732910 92 109 39 
-10.740161 -7.265403 -470.773590 85 113 39 
-10.803338 -7.265403 -470.773590 85 112 48 
-10.867455 -7.266031 -470.814301 81 111 48 
-10.930637 -7.266031 -470.814301 81 109 17 
-10.993820 -7.266031 -470.814301 84 105 16 
-11.057960 -7.266659 -470.855011 84 103 6 
-11.122109 -7.267287 -470.895721 81 107 6 
-11.186271 -7.267916 -470.936432 81 105 3 
-11.249470 -7.267916 -470.936432 77 105 3 
-11.314626 -7.269173 -471.017914 76 106 0 
-11.382758 -7.272318 -471.221680 81 105 0 
-11.452933 -7.276725 -471.507263 82 103 0 
-11.518204 -7.277986 -471.588928 76 106 0 
-11.582493 -7.278616 -471.629791 76 106 0 
-11.646794 -7.279246 -471.670624 80 101 0 
-11.714150 -7.281769 -471.834076 80 101 0 
-11.778490 -7.282400 -471.874969 78 99 0 
-11.841816 -7.282400 -471.874969 78 99 18 
-11.906173 -7.283031 -471.915863 74 100 23 
-11.969503 -7.283031 -471.915863 74 100 1 
-12.035963 -7.284925 -472.038574 74 99 0 
-12.099310 -7.284925 -472.038574 74 100 0 
-12.162658 -7.284925 -472.038574 70 94 0 
-12.224945 -7.284294 -471.997650 69 89 0 
-12.290417 -7.285556 -472.079498 71 95 0 
-12.358054 -7.288084 -472.243225 71 95 0 
-12.418199 -7.286188 -472.120422 66 90 0 
-12.480474 -7.285556 -472.079498 64 91 0 
-12.543828 -7.285556 -472.079498 67 88 0 
-12.608274 -7.286188 -472.120422 68 86 19 
-12.672730 -7.286820 -472.161346 65 86 23 
-12.736094 -7.286820 -472.161346 65 83 25 
-12.801677 -7.288084 -472.243225 62 87 31 
-12.867283 -7.289348 -472.325165 59 89 5 
-13.010787 -7.334513 -475.251678 68 88 0 
-13.074566 -7.334513 -475.251678 71 89 0 
-13.138344 -7.334513 -475.251678 68 88 0 
-13.202123 -7.334513 -475.251678 67 87 0 
-13.265901 -7.334513 -475.251678 69 90 0 
-13.329679 -7.334513 -475.251678 70 89 1 
-13.392289 -7.333872 -475.210205 67 89 0 
-13.453713 -7.332593 -475.127289 66 89 19 
-13.517475 -7.332593 -475.127289 66 87 30 
-13.529302 -7.304552 -473.310364 64 89 5 
-13.592819 -7.304552 -473.310364 72 93 0 
-13.656337 -7.304552 -473.310364 76 92 3 
-13.713895 -7.301380 -473.104767 69 94 4 
-13.778583 -7.302014 -473.145874 65 98 1 
-13.887929 -7.326201 -474.713135 77 96 0 
-13.951635 -7.326201 -474.713135 81 97 0 
-14.016563 -7.326840 -474.754517 80 99 0 
-14.080275 -7.326840 -474.754517 80 97 2 
-14.143987 -7.326840 -474.754517 83 99 0 
-14.210176 -7.328117 -474.837311 84 104 18 
-14.276388 -7.329396 -474.920135 88 102 23 
-14.346377 -7.332593 -475.127289 91 104 35 
-14.411396 -7.333232 -475.168762 88 109 42 
-14.475163 -7.333232 -475.168762 87 108 44 
-14.540199 -7.333872 -475.210205 84 107 47 
-14.601424 -7.332593 -475.127289 82 108 46 
-14.630721 -7.315361 -474.010712 85 107 49 
-14.682831 -7.309635 -473.639679 86 109 35 
-14.743829 -7.308363 -473.557312 83 109 25 
-14.804805 -7.307093 -473.474976 79 107 32 
-14.867052 -7.306458 -473.433807 87 109 34 
-14.929289 -7.305822 -473.392639 93 108 31 
-14.991514 -7.305187 -473.351501 84 106 31 
-15.052422 -7.303917 -473.269226 80 106 25 
-15.115933 -7.303917 -473.269226 77 104 25 
-15.180765 -7.304552 -473.310364 74 99 9 
-15.245608 -7.305187 -473.351501 76 94 0 
-15.309132 -7.305187 -473.351501 75 93 1 
-15.372655 -7.305187 -473.351501 77 95 0 
-15.436178 -7.305187 -473.351501 80 97 0 
-15.499701 -7.305187 -473.351501 77 102 0 
-15.561872 -7.304552 -473.310364 78 103 0 
-15.621317 -7.302648 -473.186981 72 100 0 
-15.682094 -7.301380 -473.104767 66 97 0 
-15.745584 -7.301380 -473.104767 71 97 0 
-15.811821 -7.302648 -473.186981 71 99 0 
-15.875322 -7.302648 -473.186981 77 103 0 
-15.923604 -7.295675 -472.735168 84 100 0 
-15.987045 -7.295675 -472.735168 79 101 0 
-16.044914 -7.293143 -472.571075 76 104 0 
-16.108334 -7.293143 -472.571075 80 104 0 
-16.171751 -7.293143 -472.571075 81 107 2 
-16.233761 -7.292510 -472.530060 86 109 4 
-16.281635 -7.285556 -472.079498 93 108 6 
-16.343571 -7.284925 -472.038574 88 109 11 
-16.405497 -7.284294 -471.997650 84 110 7 
-16.470264 -7.284925 -472.038574 87 111 0 
-16.533611 -7.284925 -472.038574 87 111 12 
-16.596960 -7.284925 -472.038574 92 112 27 
-16.660307 -7.284925 -472.038574 97 118 17 
-16.723654 -7.284925 -472.038574 98 121 12 
-16.788456 -7.285556 -472.079498 102 120 14 
-16.851809 -7.285556 -472.079498 101 121 17 
-16.913694 -7.284925 -472.038574 102 119 12 
-16.977043 -7.284925 -472.038574 102 117 0 
-17.040390 -7.284925 -472.038574 103 121 19 
-17.103737 -7.284925 -472.038574 104 122 28 
-17.168571 -7.285556 -472.079498 101 122 57 
-17.231924 -7.285556 -472.079498 109 130 98 
-17.295277 -7.285556 -472.079498 120 133 94 
-17.358629 -7.285556 -472.079498 120 131 109 
-17.421982 -7.285556 -472.079498 126 129 104 
-17.485336 -7.285556 -472.079498 122 128 102 
-17.548689 -7.285556 -472.079498 119 126 102 
-17.613567 -7.286188 -472.120422 119 123 103 
-17.988825 -7.414749 -480.450745 119 125 100 
-18.056488 -7.416058 -480.535522 116 129 93 
-18.117777 -7.414749 -480.450745 110 125 97 
-18.182253 -7.414749 -480.450745 113 118 104 
-18.245121 -7.414095 -480.408356 119 119 99 
-18.494844 -7.410826 -480.196533 102 111 92 
-18.560923 -7.411479 -480.238892 106 113 94 
-18.627012 -7.412133 -480.281250 111 113 89 
-18.693115 -7.412787 -480.323608 107 113 81 
-18.762539 -7.414749 -480.450745 101 111 83 
-18.828676 -7.415403 -480.493134 103 109 83 
-18.894825 -7.416058 -480.535522 106 106 83 
-18.959312 -7.416058 -480.535522 102 97 80 
-19.025478 -7.416712 -480.577911 93 99 81 
-19.088287 -7.416058 -480.535522 95 104 82 
-19.152775 -7.416058 -480.535522 96 101 81 
-19.215567 -7.415403 -480.493134 96 100 82 
-19.276646 -7.414095 -480.408356 97 104 80 
-19.336000 -7.412133 -480.281250 95 103 75 
-19.395321 -7.410173 -480.154205 90 102 76 
-19.459759 -7.410173 -480.154205 94 104 79 
-19.522472 -7.409519 -480.111877 102 102 76 
-19.586903 -7.409519 -480.111877 99 102 68 
-19.649601 -7.408866 -480.069550 92 104 71 
-19.714027 -7.408866 -480.069550 94 106 77 
-19.887575 -7.377649 -478.046783 94 100 70 
-19.953482 -7.378297 -478.088745 97 103 69 
-20.017639 -7.378297 -478.088745 97 104 66 
-20.083563 -7.378944 -478.130737 98 102 67 
-20.147726 -7.378944 -478.130737 95 101 76 
-20.210117 -7.378297 -478.088745 89 101 66 
-20.272497 -7.377649 -478.046783 87 99 31 
-20.336651 -7.377649 -478.046783 74 93 35 
-20.400805 -7.377649 -478.046783 78 91 28 
-20.463161 -7.377002 -478.004822 84 91 33 
-20.523706 -7.375707 -477.920929 86 91 46 
-20.582424 -7.373765 -477.795135 99 96 47 
-20.642921 -7.372472 -477.711334 98 108 63 
-20.707029 -7.372472 -477.711334 103 114 60 
-20.771137 -7.372472 -477.711334 102 115 59 
-20.831593 -7.371179 -477.627533 100 117 57 
-20.893856 -7.370532 -477.585632 100 119 49 
-20.956110 -7.369886 -477.543762 99 118 49 
-21.018353 -7.369240 -477.501892 99 119 45 
-21.080585 -7.368594 -477.460022 103 122 46 
-21.140953 -7.367302 -477.376312 101 124 50 
-21.197584 -7.364719 -477.208984 92 122 49 
-21.252314 -7.361494 -477.000000 93 121 43 
-21.314459 -7.360849 -476.958221 97 118 44 
-21.376595 -7.360205 -476.916473 97 119 54 
-21.440598 -7.360205 -476.916473 96 121 52 
-21.504599 -7.360205 -476.916473 97 117 43 
-21.570490 -7.360849 -476.958221 104 118 46 
-21.634497 -7.360849 -476.958221 104 124 57 
-21.704206 -7.362784 -477.083588 114 120 55 
-21.768230 -7.362784 -477.083588 112 117 44 
-21.834167 -7.363429 -477.125366 104 118 45 
-21.896278 -7.362784 -477.083588 104 117 49 
-21.958380 -7.362139 -477.041779 99 116 47 
-22.008904 -7.357627 -476.749451 99 114 35 
-22.072882 -7.357627 -476.749451 97 112 36 
-22.136862 -7.357627 -476.749451 97 106 40 
-22.189186 -7.353765 -476.499176 98 105 38 
-22.245346 -7.351192 -476.332458 97 103 0 
-22.307318 -7.350549 -476.290802 86 101 3 
-22.367325 -7.349264 -476.207520 86 92 24 
-22.431231 -7.349264 -476.207520 81 89 21 
-22.493170 -7.348621 -476.165863 79 77 0 
-22.555099 -7.347979 -476.124237 37 58 2 
-22.618996 -7.347979 -476.124237 40 49 19 
-22.682890 -7.347979 -476.124237 46 50 20 
-22.746786 -7.347979 -476.124237 47 55 60 
-22.812675 -7.348621 -476.165863 73 64 59 
-22.878576 -7.349264 -476.207520 74 85 77 
-22.944490 -7.349906 -476.249146 114 105 76 
-23.008402 -7.349906 -476.249146 113 109 70 
-23.072315 -7.349906 -476.249146 120 110 70 
-23.136227 -7.349906 -476.249146 120 122 70 
-23.200140 -7.349906 -476.249146 116 120 71 
-23.262016 -7.349264 -476.207520 116 116 60 
-23.325924 -7.349264 -476.207520 115 114 60 
-23.387785 -7.348621 -476.165863 115 109 66 
-23.451687 -7.348621 -476.165863 110 111 66 
-23.513531 -7.347979 -476.124237 110 111 66 
-23.575365 -7.347336 -476.082611 114 109 66 
-23.639256 -7.347336 -476.082611 114 113 67 
-23.703146 -7.347336 -476.082611 110 115 67 
-23.767035 -7.347336 -476.082611 110 117 68 
-23.830925 -7.347336 -476.082611 112 117 69 
-23.896904 -7.347979 -476.124237 112 115 59 
-23.964991 -7.349264 -476.207520 110 117 58 
-24.030998 -7.349906 -476.249146 111 113 56 
-24.099125 -7.351192 -476.332458 107 113 55 
-24.167276 -7.352478 -476.415802 107 115 63 
-24.233332 -7.353121 -476.457489 108 114 64 
-24.297272 -7.353121 -476.457489 108 112 61 
-24.361212 -7.353121 -476.457489 107 110 62 
-24.427288 -7.353765 -476.499176 107 108 49 
-24.495522 -7.355052 -476.582581 113 107 48 
-24.561626 -7.355696 -476.624268 114 111 64 
-24.629902 -7.356984 -476.707733 110 114 65 
-24.696037 -7.357627 -476.749451 110 112 76 
-24.762184 -7.358272 -476.791199 109 116 78 
-24.830517 -7.359560 -476.874695 108 115 61 
-24.894512 -7.359560 -476.874695 107 115 58 
-24.958509 -7.359560 -476.874695 107 117 75 
-25.024696 -7.360205 -476.916473 112 110 77 
-25.088697 -7.360205 -476.916473 113 109 66 
-25.152700 -7.360205 -476.916473 106 107 65 
-25.218910 -7.360849 -476.958221 106 102 71 
-25.285131 -7.361494 -477.000000 97 100 71 
-25.364697 -7.366010 -477.292633 96 100 67 
-25.437666 -7.368594 -477.460022 100 95 66 
-25.506214 -7.369886 -477.543762 100 98 74 
-25.572542 -7.370532 -477.585632 100 95 76 
-25.636633 -7.370532 -477.585632 100 88 63 
-25.700726 -7.370532 -477.585632 97 91 60 
-25.776119 -7.373765 -477.795135 96 92 78 
-25.842506 -7.374413 -477.837067 96 89 81 
3.853822 -7.202225 -470.773590 190 203 43 
3.790645 -7.202225 -470.773590 174 168 0 
3.727790 -7.202848 -470.814301 169 171 73 
3.664607 -7.202848 -470.814301 167 184 99 
3.601424 -7.202848 -470.814301 168 176 17 
3.538547 -7.203471 -470.855011 152 166 0 
3.475659 -7.204093 -470.895721 150 159 3 
3.412760 -7.204717 -470.936432 136 153 0 
3.350141 -7.205963 -471.017914 134 145 2 
3.287215 -7.206586 -471.058655 120 135 0 
3.224557 -7.207833 -471.140167 113 130 33 
3.161330 -7.207833 -471.140167 120 135 57 
3.098372 -7.208457 -471.180908 123 142 13 
3.035140 -7.208457 -471.180908 112 139 0 
2.972165 -7.209080 -471.221680 107 139 21 
2.908927 -7.209080 -471.221680 113 142 34 
2.845690 -7.209080 -471.221680 116 139 12 
2.782693 -7.209704 -471.262451 109 139 4 
2.719685 -7.210328 -471.303253 105 138 3 
2.657127 -7.212201 -471.425659 109 134 0 
2.594311 -7.213449 -471.507263 111 135 0 
2.532131 -7.216574 -471.711487 109 136 0 
2.469470 -7.218450 -471.834076 109 136 0 
2.406150 -7.218450 -471.834076 108 136 0 
2.342830 -7.218450 -471.834076 106 134 0 
2.279905 -7.219700 -471.915863 111 135 0 
2.216767 -7.220326 -471.956757 114 135 1 
2.153431 -7.220326 -471.956757 112 137 3 
2.090094 -7.220326 -471.956757 112 138 3 
2.026758 -7.220326 -471.956757 113 137 0 
1.963252 -7.219700 -471.915863 113 138 19 
1.899757 -7.219075 -471.874969 113 138 49 
1.835477 -7.215323 -471.629791 112 141 16 
1.772031 -7.214699 -471.588928 113 146 0 
1.708449 -7.213449 -471.507263 116 144 2 
1.645173 -7.213449 -471.507263 111 134 0 
1.582034 -7.214074 -471.548096 108 131 11 
1.518752 -7.214074 -471.548096 107 134 32 
1.455597 -7.214699 -471.588928 103 133 16 
1.392310 -7.214699 -471.588928 107 136 3 
1.329023 -7.214699 -471.588928 111 139 13 
1.265627 -7.214074 -471.548096 109 139 28 
1.202450 -7.214699 -471.588928 107 141 12 
1.139262 -7.215323 -471.629791 108 140 0 
1.075969 -7.215323 -471.629791 106 140 0 
1.012765 -7.215949 -471.670624 109 138 0 
0.949549 -7.216574 -471.711487 115 134 0 
0.886476 -7.218450 -471.834076 112 136 0 
0.823299 -7.219700 -471.915863 108 139 0 
0.760034 -7.220326 -471.956757 110 137 0 
0.696759 -7.220952 -471.997650 110 139 11 
0.633527 -7.222204 -472.079498 112 142 43 
0.570223 -7.222830 -472.120422 115 139 30 
0.506909 -7.223456 -472.161346 113 141 24 
0.443546 -7.223456 -472.161346 112 141 17 
0.380215 -7.224082 -472.202301 111 140 0 
0.316791 -7.222830 -472.120422 109 141 0 
0.253433 -7.222830 -472.120422 109 140 0 
0.190058 -7.222204 -472.079498 109 138 0 
0.126705 -7.222204 -472.079498 110 137 0 
0.063358 -7.222830 -472.120422 115 139 5 
-0.000000 -7.222830 -472.120422 113 140 31 
-0.063358 -7.222830 -472.120422 110 137 27 
-0.750024 -7.125232 -465.740967 109 140 6 
-0.812457 -7.124623 -465.701141 111 138 6 
-0.874954 -7.124623 -465.701141 111 136 0 
-0.937450 -7.124623 -465.701141 111 137 0 
-0.999947 -7.124623 -465.701141 111 137 7 
-1.063080 -7.128891 -465.980072 115 140 10 
-1.125807 -7.130111 -466.059814 115 141 35 
-1.188555 -7.131331 -466.139618 120 145 36 
-1.251218 -7.131942 -466.179504 120 146 68 
-1.314341 -7.134995 -466.379120 122 146 66 
-1.378227 -7.141723 -466.818878 122 146 70 
-1.440133 -7.138052 -466.578918 122 147 70 
-1.502362 -7.136218 -466.459015 122 146 81 
-1.564692 -7.134995 -466.379120 123 142 81 
-1.627419 -7.135607 -466.419067 123 145 82 
-1.690446 -7.137441 -466.538940 125 145 82 
-1.753056 -7.137441 -466.538940 125 143 72 
-1.815665 -7.137441 -466.538940 117 144 73 
-1.877791 -7.135607 -466.419067 117 142 83 
-1.942214 -7.142335 -466.858887 119 143 83 
-2.121078 -7.111852 -464.866333 117 140 65 
-2.181601 -7.105786 -464.469849 114 143 65 
-2.242976 -7.102757 -464.271881 114 141 63 
-2.305281 -7.102757 -464.271881 108 136 63 
-2.367182 -7.101546 -464.192719 108 135 38 
-2.429476 -7.101546 -464.192719 113 138 36 
-2.491346 -7.100336 -464.113617 113 138 49 
-2.553412 -7.099731 -464.074066 110 136 50 
-2.614799 -7.097312 -463.915924 110 134 40 
-2.676600 -7.096103 -463.836914 107 134 37 
-2.738847 -7.096103 -463.836914 108 134 57 
-2.800855 -7.095499 -463.797394 100 128 60 
-2.863340 -7.096103 -463.836914 99 125 46 
-2.925586 -7.096103 -463.836914 100 126 46 
