ply
format ascii 1.0
element vertex 1086
property float x
property float y
property float z
property uchar red
property uchar green
property uchar blue
end_header
-25.920662 2.246053 -466.825043 93 114 35 
-25.974894 2.245493 -466.708740 109 123 31 
-26.029099 2.244934 -466.592499 120 124 36 
-26.089773 2.244934 -466.592499 116 125 40 
-26.150446 2.244934 -466.592499 117 126 32 
-26.211121 2.244934 -466.592499 119 128 25 
-26.271793 2.244934 -466.592499 120 124 32 
-26.330282 2.244748 -466.553772 118 120 30 
-26.390951 2.244748 -466.553772 118 121 39 
-26.449425 2.244561 -466.515015 117 123 44 
-26.510088 2.244561 -466.515015 117 123 47 
-26.570751 2.244561 -466.515015 117 127 54 
-26.629206 2.244375 -466.476318 115 132 48 
-26.689863 2.244375 -466.476318 119 132 44 
-26.750523 2.244375 -466.476318 119 129 46 
-26.808956 2.244189 -466.437592 125 126 44 
-26.869610 2.244189 -466.437592 132 129 47 
-26.930264 2.244189 -466.437592 130 132 56 
-26.988678 2.244002 -466.398895 128 132 44 
-27.049326 2.244002 -466.398895 136 135 23 
-27.112225 2.244189 -466.437592 147 129 49 
-27.172878 2.244189 -466.437592 138 127 75 
-27.235792 2.244375 -466.476318 133 132 59 
-27.296452 2.244375 -466.476318 132 132 55 
-27.357111 2.244375 -466.476318 128 131 49 
-27.417768 2.244375 -466.476318 130 130 37 
-27.478428 2.244375 -466.476318 134 130 49 
-27.539087 2.244375 -466.476318 128 132 62 
-27.599745 2.244375 -466.476318 119 136 59 
-27.660404 2.244375 -466.476318 125 138 61 
-27.727968 2.244934 -466.592499 132 137 60 
-27.793257 2.245307 -466.669983 125 139 58 
-27.856253 2.245493 -466.708740 115 140 61 
-27.926218 2.246239 -466.863800 124 137 64 
-27.989252 2.246426 -466.902588 132 135 65 
-28.054628 2.246799 -466.980194 131 134 70 
-28.122362 2.247360 -467.096619 135 133 65 
-28.190132 2.247920 -467.213104 133 132 54 
-28.274391 2.249790 -467.601837 128 131 66 
-28.337553 2.249977 -467.640747 134 128 76 
-28.400726 2.250165 -467.679657 140 133 84 
-28.463911 2.250352 -467.718597 142 150 107 
-28.543736 2.251851 -468.030182 153 152 102 
-28.628437 2.253728 -468.420288 148 149 105 
-28.794949 2.262023 -470.144440 137 147 108 
-28.856083 2.262023 -470.144440 147 145 101 
-16.237684 2.302358 -465.934875 211 209 125 
-16.302328 2.302931 -466.050812 192 195 0 
-16.362932 2.302931 -466.050812 147 182 11 
-16.424896 2.303122 -466.089447 162 173 52 
-16.485506 2.303122 -466.089447 166 175 41 
-16.546114 2.303122 -466.089447 164 174 43 
-16.605345 2.302931 -466.050812 166 173 46 
-16.664566 2.302740 -466.012146 162 173 50 
-16.723778 2.302549 -465.973511 156 173 53 
-16.782980 2.302358 -465.934875 157 171 59 
-16.840776 2.301977 -465.857635 155 169 60 
-16.901354 2.301977 -465.857635 157 169 68 
-16.959122 2.301595 -465.780426 159 169 62 
-17.018280 2.301404 -465.741821 159 163 42 
-17.076012 2.301023 -465.664642 158 165 68 
-17.135145 2.300832 -465.626068 159 170 103 
-17.194269 2.300642 -465.587494 156 177 113 
-17.253384 2.300451 -465.548920 165 183 154 
-17.311054 2.300070 -465.471802 181 185 144 
-17.371582 2.300070 -465.471802 177 187 143 
-17.432110 2.300070 -465.471802 177 186 148 
-17.498436 2.300832 -465.626068 175 185 158 
-19.331524 2.317344 -468.967499 173 173 124 
-19.389271 2.316957 -468.889252 147 164 122 
-19.448622 2.316764 -468.850128 152 163 99 
-19.506334 2.316377 -468.771912 155 160 97 
-19.564028 2.315991 -468.693726 153 149 67 
-19.620066 2.315412 -468.576508 142 150 70 
-19.676077 2.314832 -468.459320 145 153 61 
-19.732059 2.314254 -468.342224 155 153 64 
-19.791311 2.314061 -468.303192 151 153 80 
-19.848900 2.313675 -468.225159 135 154 71 
-19.908127 2.313483 -468.186157 137 155 33 
-19.967344 2.313290 -468.147156 144 151 37 
-20.026552 2.313097 -468.108154 142 148 40 
-20.085751 2.312905 -468.069183 126 146 41 
-20.146616 2.312905 -468.069183 129 146 44 
-20.207483 2.312905 -468.069183 145 149 44 
-20.268349 2.312905 -468.069183 144 151 50 
-20.325829 2.312520 -467.991211 150 153 48 
-20.384987 2.312327 -467.952240 149 153 30 
-20.445837 2.312327 -467.952240 142 153 33 
-20.504982 2.312134 -467.913300 142 150 44 
-20.565826 2.312134 -467.913300 144 148 45 
-20.626673 2.312134 -467.913300 143 150 62 
-20.687517 2.312134 -467.913300 139 154 60 
-20.750092 2.312327 -467.952240 140 153 51 
-20.810942 2.312327 -467.952240 148 152 51 
-20.875269 2.312712 -468.030182 147 152 51 
-20.936131 2.312712 -468.030182 140 154 52 
-20.996990 2.312712 -468.030182 140 157 62 
-21.054344 2.312327 -467.952240 148 156 63 
-21.111679 2.311942 -467.874329 148 160 86 
-21.168995 2.311557 -467.796448 146 164 85 
-21.228060 2.311365 -467.757507 146 163 82 
-21.287113 2.311172 -467.718597 139 158 82 
-21.347933 2.311172 -467.718597 139 152 63 
-21.408754 2.311172 -467.718597 142 153 63 
-21.469574 2.311172 -467.718597 142 161 82 
-21.530394 2.311172 -467.718597 139 159 82 
-21.591215 2.311172 -467.718597 139 149 65 
-21.652035 2.311172 -467.718597 146 150 65 
-21.711048 2.310980 -467.679657 146 159 75 
-21.771864 2.310980 -467.679657 145 162 76 
-21.832680 2.310980 -467.679657 145 155 61 
-21.893494 2.310980 -467.679657 130 149 61 
-21.954309 2.310980 -467.679657 128 145 65 
-22.015125 2.310980 -467.679657 153 153 65 
-22.075939 2.310980 -467.679657 154 161 79 
-22.136755 2.310980 -467.679657 145 155 82 
-22.199417 2.311172 -467.718597 145 152 52 
-22.260239 2.311172 -467.718597 149 150 48 
-22.321058 2.311172 -467.718597 150 143 53 
-22.381878 2.311172 -467.718597 134 145 53 
-22.442699 2.311172 -467.718597 133 152 62 
-22.503519 2.311172 -467.718597 137 152 65 
-22.564341 2.311172 -467.718597 137 151 36 
-22.623278 2.310980 -467.679657 143 152 29 
-22.684093 2.310980 -467.679657 143 154 71 
-22.744907 2.310980 -467.679657 150 155 76 
-22.805723 2.310980 -467.679657 151 150 57 
-22.866539 2.310980 -467.679657 148 148 55 
-22.929262 2.311172 -467.718597 147 154 60 
-22.990082 2.311172 -467.718597 157 153 60 
-23.050903 2.311172 -467.718597 160 150 69 
-23.111723 2.311172 -467.718597 140 148 76 
-23.172543 2.311172 -467.718597 138 139 33 
-23.233364 2.311172 -467.718597 133 136 20 
-23.294184 2.311172 -467.718597 132 140 70 
-23.355003 2.311172 -467.718597 135 138 81 
-23.413876 2.310980 -467.679657 136 131 45 
-23.476645 2.311172 -467.718597 129 125 41 
-23.537464 2.311172 -467.718597 128 122 34 
-23.598286 2.311172 -467.718597 126 121 33 
-23.659105 2.311172 -467.718597 125 120 24 
-23.719927 2.311172 -467.718597 125 115 18 
-23.780746 2.311172 -467.718597 128 100 46 
-23.841566 2.311172 -467.718597 108 99 54 
-23.902388 2.311172 -467.718597 101 107 43 
-23.965202 2.311365 -467.757507 112 108 46 
-24.026028 2.311365 -467.757507 116 97 20 
-24.086853 2.311365 -467.757507 99 92 13 
-24.145668 2.311172 -467.718597 93 100 11 
-24.206488 2.311172 -467.718597 108 104 0 
-24.263269 2.310788 -467.640747 113 98 42 
-24.322056 2.310595 -467.601837 101 93 54 
-24.372723 2.309634 -467.407410 97 92 60 
-24.427408 2.309058 -467.290802 106 92 65 
-24.486137 2.308867 -467.251953 106 96 62 
-24.546896 2.308867 -467.251953 120 97 68 
-24.605610 2.308675 -467.213104 125 101 41 
-24.664314 2.308483 -467.174286 126 105 28 
-24.723009 2.308291 -467.135437 126 104 45 
-24.783752 2.308291 -467.135437 130 99 44 
-24.842432 2.308099 -467.096619 129 101 63 
-24.903172 2.308099 -467.096619 138 110 78 
-24.961838 2.307907 -467.057800 144 115 50 
-25.020493 2.307715 -467.018982 133 111 33 
-25.081223 2.307715 -467.018982 130 108 64 
-25.141951 2.307715 -467.018982 129 113 90 
-25.202681 2.307715 -467.018982 130 109 30 
-25.265509 2.307907 -467.057800 122 101 0 
-25.328348 2.308099 -467.096619 114 109 55 
-25.389088 2.308099 -467.096619 131 119 82 
-25.451942 2.308291 -467.135437 141 120 70 
-25.512688 2.308291 -467.135437 128 118 86 
-25.573431 2.308291 -467.135437 126 115 35 
-25.634176 2.308291 -467.135437 113 102 0 
-25.690649 2.307907 -467.057800 103 93 37 
-25.747105 2.307523 -466.980194 105 103 64 
-25.805685 2.307332 -466.941376 103 114 15 
-25.864256 2.307140 -466.902588 107 115 0 
-25.920662 2.306757 -466.825043 107 122 28 
-25.974894 2.306182 -466.708740 114 126 59 
-26.031260 2.305799 -466.631226 119 128 39 
-26.089773 2.305608 -466.592499 120 131 37 
-26.150446 2.305608 -466.592499 123 130 27 
-26.211121 2.305608 -466.592499 123 132 24 
-26.271793 2.305608 -466.592499 125 132 7 
-26.332468 2.305608 -466.592499 121 128 0 
-26.390951 2.305416 -466.553772 118 127 14 
-26.449425 2.305225 -466.515015 120 127 36 
-26.510088 2.305225 -466.515015 120 128 23 
-26.568546 2.305034 -466.476318 124 134 19 
-26.629206 2.305034 -466.476318 128 140 21 
-26.689863 2.305034 -466.476318 128 139 21 
-26.748302 2.304842 -466.437592 130 135 21 
-26.808956 2.304842 -466.437592 128 133 17 
-26.869610 2.304842 -466.437592 125 134 29 
-26.930264 2.304842 -466.437592 128 136 46 
-26.990917 2.304842 -466.437592 129 137 27 
-27.051571 2.304842 -466.437592 131 135 3 
-27.112225 2.304842 -466.437592 133 132 26 
-27.175135 2.305034 -466.476318 133 134 44 
-27.235792 2.305034 -466.476318 136 133 39 
-27.296452 2.305034 -466.476318 132 130 44 
-27.357111 2.305034 -466.476318 128 133 36 
-27.417768 2.305034 -466.476318 129 133 18 
-27.478428 2.305034 -466.476318 128 132 42 
-27.539087 2.305034 -466.476318 129 135 71 
-27.599745 2.305034 -466.476318 130 138 61 
-27.660404 2.305034 -466.476318 130 137 60 
-27.723364 2.305225 -466.515015 130 137 61 
-27.788641 2.305608 -466.592499 131 140 60 
-27.849316 2.305608 -466.592499 131 141 62 
-27.914625 2.305991 -466.669983 132 136 64 
-27.977631 2.306182 -466.708740 133 137 66 
-28.047638 2.306948 -466.863800 130 141 73 
-28.120026 2.307907 -467.057800 124 138 67 
-28.190132 2.308675 -467.213104 130 136 55 
-28.272039 2.310403 -467.562927 138 135 66 
-28.335196 2.310595 -467.601837 135 130 75 
-28.396002 2.310595 -467.601837 130 129 84 
-28.459175 2.310788 -467.640747 138 137 108 
-28.524731 2.311172 -467.718597 152 148 103 
-28.777143 2.326663 -470.853424 150 153 106 
-28.838371 2.326663 -470.853424 147 151 108 
-28.877825 2.324910 -470.498657 157 153 99 
-16.302328 2.363534 -466.050812 206 211 150 
-16.364288 2.363731 -466.089447 138 192 109 
-16.424896 2.363731 -466.089447 160 177 2 
-16.489609 2.364319 -466.205444 167 174 42 
-16.547485 2.363927 -466.128113 165 176 64 
-16.606722 2.363731 -466.089447 166 177 61 
-16.665949 2.363534 -466.050812 161 177 72 
-16.725164 2.363338 -466.012146 153 177 60 
-16.784372 2.363142 -465.973511 155 175 39 
-16.844965 2.363142 -465.973511 155 172 47 
-16.904158 2.362947 -465.934875 156 169 56 
-16.961933 2.362555 -465.857635 160 165 48 
-17.021101 2.362359 -465.819031 159 162 34 
-17.078842 2.361968 -465.741821 159 165 42 
-17.136566 2.361576 -465.664642 157 166 35 
-17.195694 2.361381 -465.626068 146 165 58 
-17.254812 2.361185 -465.587494 157 177 108 
-17.312487 2.360794 -465.510345 179 185 102 
-17.371582 2.360598 -465.471802 173 182 119 
-17.432110 2.360598 -465.471802 173 176 118 
-17.498436 2.361381 -465.626068 172 175 125 
-17.570629 2.362947 -465.934875 167 179 121 
-17.635603 2.363534 -466.050812 170 177 115 
-19.321850 2.377136 -468.732819 172 170 75 
-19.382803 2.377136 -468.732819 148 161 85 
-19.443754 2.377136 -468.732819 151 159 92 
-19.503080 2.376938 -468.693726 152 158 87 
-19.559134 2.376343 -468.576508 151 150 56 
-19.615160 2.375749 -468.459320 144 149 59 
-19.672796 2.375353 -468.381256 145 152 53 
-19.732059 2.375155 -468.342224 149 154 53 
-19.791311 2.374957 -468.303192 147 153 46 
-19.850554 2.374759 -468.264160 136 151 46 
-19.909786 2.374562 -468.225159 137 151 36 
-19.967344 2.374166 -468.147156 140 149 38 
-20.026552 2.373968 -468.108154 139 148 47 
-20.084078 2.373573 -468.030182 132 144 47 
-20.144939 2.373573 -468.030182 133 145 48 
-20.204117 2.373375 -467.991211 139 148 48 
-20.264973 2.373375 -467.991211 139 149 61 
-20.324137 2.373178 -467.952240 141 154 55 
-20.383289 2.372980 -467.913300 140 154 0 
-20.444136 2.372980 -467.913300 137 149 1 
-20.503275 2.372782 -467.874329 137 147 35 
-20.564116 2.372782 -467.874329 136 148 36 
-20.623238 2.372585 -467.835388 136 151 81 
-20.684074 2.372585 -467.835388 137 160 76 
-20.744909 2.372585 -467.835388 137 159 27 
-20.805744 2.372585 -467.835388 143 153 30 
-20.868319 2.372782 -467.874329 142 153 45 
-20.929157 2.372782 -467.874329 136 151 45 
-20.989998 2.372782 -467.874329 136 152 78 
-21.050838 2.372782 -467.874329 140 152 77 
-21.108166 2.372387 -467.796448 140 152 73 
-21.167234 2.372190 -467.757507 143 156 73 
-21.226294 2.371993 -467.718597 143 157 83 
-21.287113 2.371993 -467.718597 145 151 83 
-21.347933 2.371993 -467.718597 145 149 64 
-21.408754 2.371993 -467.718597 141 155 64 
-21.469574 2.371993 -467.718597 141 157 97 
-21.530394 2.371993 -467.718597 140 152 97 
-21.591215 2.371993 -467.718597 140 147 74 
-21.652035 2.371993 -467.718597 141 152 73 
-21.712854 2.371993 -467.718597 140 155 83 
-21.771864 2.371795 -467.679657 139 156 84 
-21.832680 2.371795 -467.679657 139 155 68 
-21.893494 2.371795 -467.679657 137 148 67 
-21.954309 2.371795 -467.679657 136 143 61 
-22.015125 2.371795 -467.679657 138 156 60 
-22.075939 2.371795 -467.679657 137 166 83 
-22.136755 2.371795 -467.679657 151 156 88 
-22.199417 2.371993 -467.718597 152 149 33 
-22.260239 2.371993 -467.718597 142 145 29 
-22.321058 2.371993 -467.718597 141 141 47 
-22.381878 2.371993 -467.718597 135 147 48 
-22.442699 2.371993 -467.718597 134 150 55 
-22.503519 2.371993 -467.718597 139 148 58 
-22.564341 2.371993 -467.718597 138 152 24 
-22.623278 2.371795 -467.679657 149 155 15 
-22.684093 2.371795 -467.679657 150 151 75 
-22.744907 2.371795 -467.679657 152 152 86 
-22.805723 2.371795 -467.679657 152 158 51 
-22.868441 2.371993 -467.718597 155 156 46 
-22.929262 2.371993 -467.718597 156 156 60 
-22.990082 2.371993 -467.718597 156 154 60 
-23.050903 2.371993 -467.718597 157 150 71 
-23.111723 2.371993 -467.718597 153 145 79 
-23.172543 2.371993 -467.718597 154 145 29 
-23.233364 2.371993 -467.718597 149 146 14 
-23.294184 2.371993 -467.718597 150 140 72 
-23.355003 2.371993 -467.718597 138 136 86 
-23.415825 2.371993 -467.718597 136 134 45 
-23.476645 2.371993 -467.718597 129 128 40 
-23.537464 2.371993 -467.718597 127 123 33 
-23.598286 2.371993 -467.718597 127 122 32 
-23.659105 2.371993 -467.718597 128 119 24 
-23.719927 2.371993 -467.718597 122 112 17 
-23.780746 2.371993 -467.718597 123 108 45 
-23.841566 2.371993 -467.718597 112 110 53 
-23.902388 2.371993 -467.718597 108 107 43 
-23.965202 2.372190 -467.757507 109 104 45 
-24.026028 2.372190 -467.757507 109 98 22 
-24.084848 2.371993 -467.718597 108 92 15 
-24.145668 2.371993 -467.718597 106 103 15 
-24.206488 2.371993 -467.718597 115 108 7 
-24.263269 2.371598 -467.640747 117 102 41 
-24.322056 2.371401 -467.601837 117 94 47 
-24.374750 2.370612 -467.446289 115 104 59 
-24.427408 2.369823 -467.290802 126 113 67 
-24.488173 2.369823 -467.290802 131 105 60 
-24.546896 2.369626 -467.251953 127 103 63 
-24.607656 2.369626 -467.251953 127 104 42 
-24.666365 2.369429 -467.213104 125 104 33 
-24.723009 2.369035 -467.135437 123 103 45 
-24.783752 2.369035 -467.135437 125 99 43 
-24.842432 2.368838 -467.096619 125 97 62 
-24.901102 2.368641 -467.057800 131 106 76 
-24.961838 2.368641 -467.057800 134 108 53 
-25.020493 2.368445 -467.018982 131 102 40 
-25.081223 2.368445 -467.018982 131 108 62 
-25.141951 2.368445 -467.018982 127 113 78 
-25.202681 2.368445 -467.018982 123 108 40 
-25.267609 2.368838 -467.096619 130 107 13 
-25.328348 2.368838 -467.096619 129 116 60 
-25.389088 2.368838 -467.096619 142 126 88 
-25.451942 2.369035 -467.135437 159 128 59 
-25.512688 2.369035 -467.135437 127 125 53 
-25.573431 2.369035 -467.135437 115 111 38 
-25.634176 2.369035 -467.135437 109 100 25 
-25.690649 2.368641 -467.057800 98 103 31 
-25.747105 2.368248 -466.980194 105 110 32 
-25.803541 2.367854 -466.902588 104 113 24 
-25.864256 2.367854 -466.902588 113 117 16 
-25.920662 2.367461 -466.825043 121 124 33 
-25.974894 2.366871 -466.708740 116 128 45 
-26.031260 2.366478 -466.631226 112 132 37 
-26.089773 2.366282 -466.592499 120 134 34 
-26.150446 2.366282 -466.592499 126 134 33 
-26.211121 2.366282 -466.592499 124 135 38 
-26.271793 2.366282 -466.592499 126 138 19 
-26.330282 2.366085 -466.553772 122 136 0 
-26.388760 2.365889 -466.515015 119 131 22 
-26.447229 2.365692 -466.476318 119 131 35 
-26.507887 2.365692 -466.476318 115 135 39 
-26.568546 2.365692 -466.476318 125 139 48 
-26.629206 2.365692 -466.476318 135 144 47 
-26.687649 2.365496 -466.437592 132 144 53 
-26.748302 2.365496 -466.437592 136 139 43 
-26.808956 2.365496 -466.437592 126 137 33 
-26.869610 2.365496 -466.437592 114 137 39 
-26.930264 2.365496 -466.437592 122 137 47 
-26.990917 2.365496 -466.437592 128 138 33 
-27.051571 2.365496 -466.437592 127 137 13 
-27.114475 2.365692 -466.476318 126 138 34 
-27.175135 2.365692 -466.476318 130 139 55 
-27.235792 2.365692 -466.476318 137 130 40 
-27.296452 2.365692 -466.476318 130 128 25 
-27.357111 2.365692 -466.476318 123 136 35 
-27.417768 2.365692 -466.476318 126 138 39 
-27.478428 2.365692 -466.476318 125 138 45 
-27.539087 2.365692 -466.476318 128 140 53 
-27.599745 2.365692 -466.476318 134 141 58 
-27.660404 2.365692 -466.476318 131 140 71 
-27.721064 2.365692 -466.476318 129 138 69 
-27.784029 2.365889 -466.515015 131 142 73 
-27.849316 2.366282 -466.592499 136 144 68 
-27.909988 2.366282 -466.592499 133 138 57 
-27.975307 2.366675 -466.669983 131 141 66 
-28.038321 2.366871 -466.708740 129 147 79 
-28.108347 2.367658 -466.863800 120 142 73 
-28.185446 2.369035 -467.135437 127 138 65 
-28.269688 2.371006 -467.524048 140 133 69 
-28.332838 2.371203 -467.562927 135 131 68 
-28.393639 2.371203 -467.562927 128 134 77 
-28.452072 2.371006 -467.524048 137 135 91 
-28.515240 2.371203 -467.562927 153 141 95 
-28.781967 2.388291 -470.932343 151 151 115 
-28.843204 2.388291 -470.932343 149 150 115 
-28.889917 2.387091 -470.695679 158 153 112 
-16.364288 2.424339 -466.089447 201 199 136 
-16.427622 2.424741 -466.166779 189 187 0 
-16.489609 2.424942 -466.205444 157 178 23 
-16.548859 2.424741 -466.166779 165 174 87 
-16.608099 2.424540 -466.128113 163 178 71 
-16.667332 2.424339 -466.089447 164 177 82 
-16.726553 2.424138 -466.050812 167 180 62 
-16.785763 2.423937 -466.012146 166 181 25 
-16.844965 2.423736 -465.973511 166 176 38 
-16.905560 2.423736 -465.973511 162 172 49 
-16.964745 2.423535 -465.934875 154 168 40 
-17.022511 2.423133 -465.857635 155 164 28 
-17.081675 2.422932 -465.819031 154 168 31 
-17.139406 2.422531 -465.741821 153 170 17 
-17.199968 2.422531 -465.741821 150 163 46 
-17.257671 2.422129 -465.664642 154 164 107 
-17.315355 2.421728 -465.587494 158 180 99 
-17.375898 2.421728 -465.587494 161 183 113 
-17.437887 2.421929 -465.626068 171 174 113 
-17.504236 2.422732 -465.780426 168 180 122 
-17.570629 2.423535 -465.934875 165 183 117 
-17.632679 2.423736 -465.973511 165 180 109 
-17.696207 2.424138 -466.050812 161 180 111 
-18.270426 2.436057 -468.342224 163 185 142 
-18.329800 2.435854 -468.303192 164 180 169 
-18.390696 2.435854 -468.303192 165 186 168 
-19.254475 2.437275 -468.576508 167 174 154 
-19.318628 2.437682 -468.654663 165 163 81 
-19.379570 2.437682 -468.654663 145 156 89 
-19.438890 2.437479 -468.615570 147 154 87 
-19.498203 2.437275 -468.576508 141 153 83 
-19.555874 2.436869 -468.498383 143 151 59 
-19.613525 2.436463 -468.420288 150 150 60 
-19.671158 2.436057 -468.342224 149 155 58 
-19.732059 2.436057 -468.342224 142 157 56 
-19.791311 2.435854 -468.303192 141 153 39 
-19.850554 2.435651 -468.264160 133 151 40 
-19.909786 2.435448 -468.225159 134 150 41 
-19.969007 2.435245 -468.186157 133 148 42 
-20.026552 2.434839 -468.108154 133 148 47 
-20.082405 2.434231 -467.991211 137 146 47 
-20.141584 2.434028 -467.952240 136 147 50 
-20.202435 2.434028 -467.952240 131 150 49 
-20.263287 2.434028 -467.952240 131 147 35 
-20.322445 2.433826 -467.913300 132 148 35 
-20.381594 2.433623 -467.874329 132 150 19 
-20.440731 2.433420 -467.835388 132 148 21 
-20.501568 2.433420 -467.835388 132 143 49 
-20.560692 2.433218 -467.796448 126 146 48 
-20.619806 2.433015 -467.757507 126 150 43 
-20.680632 2.433015 -467.757507 133 153 40 
-20.741457 2.433015 -467.757507 133 157 42 
-20.804012 2.433218 -467.796448 142 154 42 
-20.866581 2.433420 -467.835388 142 156 59 
-20.927416 2.433420 -467.835388 127 156 59 
-20.988251 2.433420 -467.835388 128 154 71 
-21.047335 2.433218 -467.796448 132 156 70 
-21.108166 2.433218 -467.796448 132 153 73 
-21.165472 2.432813 -467.718597 135 157 73 
-21.226294 2.432813 -467.718597 135 160 74 
-21.287113 2.432813 -467.718597 148 158 74 
-21.347933 2.432813 -467.718597 148 160 72 
-21.408754 2.432813 -467.718597 141 157 72 
-21.469574 2.432813 -467.718597 141 155 70 
-21.530394 2.432813 -467.718597 141 154 70 
-21.591215 2.432813 -467.718597 141 153 61 
-21.652035 2.432813 -467.718597 139 151 61 
-21.712854 2.432813 -467.718597 139 149 57 
-21.773676 2.432813 -467.718597 142 148 57 
-21.832680 2.432611 -467.679657 142 151 57 
-21.893494 2.432611 -467.679657 142 151 57 
-21.954309 2.432611 -467.679657 143 144 57 
-22.015125 2.432611 -467.679657 132 145 56 
-22.075939 2.432611 -467.679657 131 160 84 
-22.138597 2.432813 -467.718597 154 164 86 
-22.199417 2.432813 -467.718597 158 152 84 
-22.260239 2.432813 -467.718597 137 151 89 
-22.321058 2.432813 -467.718597 135 149 56 
-22.381878 2.432813 -467.718597 132 144 53 
-22.442699 2.432813 -467.718597 131 145 51 
-22.503519 2.432813 -467.718597 139 143 50 
-22.564341 2.432813 -467.718597 139 149 53 
-22.623278 2.432611 -467.679657 150 156 55 
-22.684093 2.432611 -467.679657 152 150 51 
-22.744907 2.432611 -467.679657 151 150 48 
-22.807621 2.432813 -467.718597 151 158 78 
-22.868441 2.432813 -467.718597 156 161 84 
-22.929262 2.432813 -467.718597 157 159 70 
-22.990082 2.432813 -467.718597 155 159 68 
-23.050903 2.432813 -467.718597 155 155 73 
-23.111723 2.432813 -467.718597 154 153 75 
-23.172543 2.432813 -467.718597 154 157 65 
-23.233364 2.432813 -467.718597 151 148 65 
-23.294184 2.432813 -467.718597 152 139 56 
-23.355003 2.432813 -467.718597 138 133 53 
-23.415825 2.432813 -467.718597 137 130 55 
-23.476645 2.432813 -467.718597 129 126 56 
-23.537464 2.432813 -467.718597 126 121 51 
-23.598286 2.432813 -467.718597 127 125 53 
-23.659105 2.432813 -467.718597 128 123 40 
-23.719927 2.432813 -467.718597 122 115 38 
-23.780746 2.432813 -467.718597 123 113 28 
-23.841566 2.432813 -467.718597 112 107 22 
-23.904377 2.433015 -467.757507 108 103 38 
-23.965202 2.433015 -467.757507 109 94 41 
-24.026028 2.433015 -467.757507 109 83 50 
-24.084848 2.432813 -467.718597 108 90 56 
-24.145668 2.432813 -467.718597 106 104 45 
-24.206488 2.432813 -467.718597 113 108 43 
-24.263269 2.432408 -467.640747 116 101 41 
-24.322056 2.432206 -467.601837 115 98 30 
-24.374750 2.431396 -467.446289 113 106 74 
-24.427408 2.430588 -467.290802 125 118 99 
-24.488173 2.430588 -467.290802 129 118 49 
-24.548937 2.430588 -467.290802 127 106 33 
-24.607656 2.430386 -467.251953 128 105 42 
-24.666365 2.430184 -467.213104 126 103 41 
-24.723009 2.429780 -467.135437 125 100 43 
-24.781694 2.429578 -467.096619 126 97 40 
-24.842432 2.429578 -467.096619 125 94 60 
-24.901102 2.429376 -467.057800 132 107 74 
-24.959763 2.429174 -467.018982 137 114 56 
-25.020493 2.429174 -467.018982 133 109 52 
-25.081223 2.429174 -467.018982 134 114 45 
-25.141951 2.429174 -467.018982 128 109 35 
-25.202681 2.429174 -467.018982 123 99 53 
-25.267609 2.429578 -467.096619 128 109 55 
-25.328348 2.429578 -467.096619 126 126 78 
-25.391199 2.429780 -467.135437 138 135 111 
-25.454058 2.429982 -467.174286 151 137 42 
-25.514809 2.429982 -467.174286 126 120 0 
-25.573431 2.429780 -467.135437 115 104 38 
-25.634176 2.429780 -467.135437 109 108 65 
-25.690649 2.429376 -467.057800 101 114 18 
-25.747105 2.428972 -466.980194 104 111 0 
-25.803541 2.428569 -466.902588 100 111 27 
-25.862106 2.428367 -466.863800 114 122 56 
-25.918510 2.427963 -466.786255 124 132 37 
-25.972738 2.427359 -466.669983 122 137 33 
-26.029099 2.426956 -466.592499 124 142 29 
-26.087606 2.426754 -466.553772 126 142 19 
-26.148275 2.426754 -466.553772 128 138 35 
-26.208944 2.426754 -466.553772 129 141 58 
-26.269613 2.426754 -466.553772 135 146 22 
-26.328096 2.426553 -466.515015 125 137 0 
-26.386570 2.426351 -466.476318 114 131 18 
-26.447229 2.426351 -466.476318 122 134 28 
-26.507887 2.426351 -466.476318 126 137 43 
-26.568546 2.426351 -466.476318 129 140 61 
-26.626995 2.426150 -466.437592 133 144 62 
-26.687649 2.426150 -466.437592 132 143 79 
-26.748302 2.426150 -466.437592 132 140 54 
-26.808956 2.426150 -466.437592 131 140 30 
-26.871840 2.426351 -466.476318 129 140 37 
-26.932499 2.426351 -466.476318 130 139 41 
-26.993158 2.426351 -466.476318 132 139 28 
-27.053816 2.426351 -466.476318 130 138 6 
-27.114475 2.426351 -466.476318 126 140 26 
-27.175135 2.426351 -466.476318 128 137 53 
-27.235792 2.426351 -466.476318 128 126 30 
-27.296452 2.426351 -466.476318 130 133 2 
-27.357111 2.426351 -466.476318 134 141 25 
-27.417768 2.426351 -466.476318 133 139 46 
-27.478428 2.426351 -466.476318 133 141 44 
-27.539087 2.426351 -466.476318 132 144 45 
-27.599745 2.426351 -466.476318 130 144 57 
-27.660404 2.426351 -466.476318 131 141 77 
-27.723364 2.426553 -466.515015 132 139 72 
-27.784029 2.426553 -466.515015 133 143 78 
-27.847004 2.426754 -466.553772 135 147 70 
-27.909988 2.426956 -466.592499 136 145 51 
-27.972986 2.427157 -466.631226 140 143 64 
-28.035992 2.427359 -466.669983 138 144 82 
-28.106010 2.428165 -466.825043 136 142 74 
-28.183102 2.429578 -467.096619 136 141 65 
-28.267336 2.431599 -467.485168 137 135 69 
-28.330482 2.431801 -467.524048 134 132 68 
-28.391277 2.431801 -467.524048 127 136 75 
-28.449705 2.431599 -467.485168 133 140 87 
-28.510494 2.431599 -467.485168 144 140 95 
-28.781967 2.449529 -470.932343 144 139 120 
-28.843204 2.449529 -470.932343 146 143 116 
-28.897179 2.448914 -470.813995 154 156 111 
-16.361574 2.484535 -466.012146 227 222 180 
-16.424896 2.484947 -466.089447 201 202 127 
-16.486874 2.485154 -466.128113 143 186 105 
-16.547485 2.485154 -466.128113 159 175 5 
-16.606722 2.484947 -466.089447 161 174 42 
-16.665949 2.484741 -466.050812 164 176 67 
-16.726553 2.484741 -466.050812 172 178 63 
-16.785763 2.484535 -466.012146 169 184 69 
-16.844965 2.484329 -465.973511 170 180 68 
-16.905560 2.484329 -465.973511 164 174 76 
-16.964745 2.484123 -465.934875 150 173 64 
-17.023922 2.483917 -465.896271 153 167 36 
-17.083090 2.483712 -465.857635 152 165 40 
-17.142246 2.483506 -465.819031 152 169 28 
-17.201395 2.483300 -465.780426 148 166 40 
-17.260532 2.483094 -465.741821 152 158 50 
-17.319660 2.482888 -465.703217 156 161 65 
-17.380219 2.482888 -465.703217 159 175 121 
-17.442223 2.483094 -465.741821 172 179 110 
-17.505688 2.483506 -465.819031 168 180 112 
-17.570629 2.484123 -465.934875 164 180 110 
-17.632679 2.484329 -465.973511 164 178 109 
-17.694740 2.484535 -466.012146 160 177 105 
-17.758284 2.484947 -466.089447 162 177 89 
-17.849979 2.489283 -466.902588 166 175 96 
-17.974394 2.489697 -466.980194 161 178 108 
-18.038116 2.490110 -467.057800 164 178 93 
-18.100355 2.490317 -467.096619 171 177 97 
-18.164114 2.490731 -467.174286 169 179 101 
-18.247616 2.493841 -467.757507 163 183 98 
-18.308441 2.493841 -467.757507 165 175 89 
-18.369267 2.493841 -467.757507 166 173 94 
-18.451591 2.496750 -468.303192 168 175 104 
-18.510946 2.496542 -468.264160 176 175 106 
-18.571836 2.496542 -468.264160 177 180 118 
-18.632729 2.496542 -468.264160 185 181 123 
-19.249660 2.497582 -468.459320 164 164 141 
-19.313797 2.497999 -468.537445 162 156 77 
-19.374723 2.497999 -468.537445 144 154 82 
-19.435650 2.497999 -468.537445 145 151 66 
-19.496576 2.497999 -468.537445 141 145 67 
-19.554243 2.497582 -468.459320 142 146 59 
-19.611891 2.497166 -468.381256 145 151 60 
-19.671158 2.496958 -468.342224 143 153 71 
-19.732059 2.496958 -468.342224 140 158 62 
-19.791311 2.496750 -468.303192 139 155 0 
-19.850554 2.496542 -468.264160 133 148 3 
-19.909786 2.496334 -468.225159 134 146 60 
-19.969007 2.496126 -468.186157 134 144 55 
-20.026552 2.495710 -468.108154 134 145 49 
-20.080734 2.494879 -467.952240 136 147 49 
-20.141584 2.494879 -467.952240 135 147 57 
-20.200752 2.494671 -467.913300 130 149 52 
-20.261599 2.494671 -467.913300 130 147 0 
-20.319061 2.494256 -467.835388 131 141 0 
-20.378201 2.494048 -467.796448 131 143 40 
-20.437330 2.493841 -467.757507 132 144 39 
-20.496449 2.493633 -467.718597 132 142 75 
-20.557270 2.493633 -467.718597 130 148 70 
-20.618090 2.493633 -467.718597 130 151 0 
-20.678909 2.493633 -467.718597 131 147 0 
-20.739731 2.493633 -467.718597 131 148 62 
-20.802282 2.493841 -467.757507 135 148 60 
-20.864843 2.494048 -467.796448 135 151 74 
-20.925674 2.494048 -467.796448 136 153 73 
-20.986504 2.494048 -467.796448 136 155 75 
-21.047335 2.494048 -467.796448 135 162 75 
-21.106409 2.493841 -467.757507 135 161 70 
-21.165472 2.493633 -467.718597 149 166 70 
-21.226294 2.493633 -467.718597 150 164 62 
-21.287113 2.493633 -467.718597 146 167 61 
-21.347933 2.493633 -467.718597 146 164 77 
-21.408754 2.493633 -467.718597 140 154 79 
-21.469574 2.493633 -467.718597 140 157 46 
-21.530394 2.493633 -467.718597 137 158 45 
-21.591215 2.493633 -467.718597 137 149 65 
-21.652035 2.493633 -467.718597 135 144 67 
-21.712854 2.493633 -467.718597 135 148 44 
-21.773676 2.493633 -467.718597 122 145 42 
-21.834496 2.493633 -467.718597 121 141 53 
-21.895317 2.493633 -467.718597 130 143 54 
-21.956137 2.493633 -467.718597 130 149 53 
-22.016956 2.493633 -467.718597 134 150 50 
-22.077778 2.493633 -467.718597 133 147 92 
-22.138597 2.493633 -467.718597 142 154 95 
-22.199417 2.493633 -467.718597 143 160 104 
-22.260239 2.493633 -467.718597 151 160 109 
-22.321058 2.493633 -467.718597 152 159 57 
-22.381878 2.493633 -467.718597 144 151 52 
-22.442699 2.493633 -467.718597 145 145 53 
-22.503519 2.493633 -467.718597 134 143 50 
-22.564341 2.493633 -467.718597 131 143 65 
-22.623278 2.493426 -467.679657 147 150 68 
-22.684093 2.493426 -467.679657 148 158 43 
-22.746801 2.493633 -467.718597 157 158 34 
-22.807621 2.493633 -467.718597 159 161 80 
-22.868441 2.493633 -467.718597 160 163 89 
-22.929262 2.493633 -467.718597 160 162 69 
-22.990082 2.493633 -467.718597 167 164 66 
-23.050903 2.493633 -467.718597 168 163 73 
-23.111723 2.493633 -467.718597 168 164 74 
-23.172543 2.493633 -467.718597 172 158 70 
-23.233364 2.493633 -467.718597 144 146 72 
-23.294184 2.493633 -467.718597 139 135 56 
-23.355003 2.493633 -467.718597 131 128 52 
-23.415825 2.493633 -467.718597 128 128 54 
-23.476645 2.493633 -467.718597 127 125 55 
-23.537464 2.493633 -467.718597 128 121 53 
-23.600250 2.493841 -467.757507 121 124 55 
-23.661076 2.493841 -467.757507 120 124 40 
-23.721901 2.493841 -467.757507 117 118 38 
-23.782726 2.493841 -467.757507 116 111 29 
-23.843552 2.493841 -467.757507 113 103 23 
-23.904377 2.493841 -467.757507 114 100 38 
-23.965202 2.493841 -467.757507 104 90 41 
-24.026028 2.493841 -467.757507 99 88 48 
-24.086853 2.493841 -467.757507 107 98 53 
-24.145668 2.493633 -467.718597 110 103 43 
-24.206488 2.493633 -467.718597 106 103 41 
-24.263269 2.493218 -467.640747 102 104 41 
-24.322056 2.493011 -467.601837 113 104 33 
-24.374750 2.492181 -467.446289 113 104 69 
-24.427408 2.491353 -467.290802 130 113 90 
-24.488173 2.491353 -467.290802 140 118 52 
-24.548937 2.491353 -467.290802 134 112 39 
-24.605610 2.490938 -467.213104 133 106 45 
-24.664314 2.490731 -467.174286 133 104 45 
-24.720955 2.490317 -467.096619 135 103 45 
-24.781694 2.490317 -467.096619 128 99 40 
-24.840368 2.490110 -467.057800 122 98 59 
-24.901102 2.490110 -467.057800 135 109 71 
-24.959763 2.489903 -467.018982 140 119 54 
-25.020493 2.489903 -467.018982 140 118 49 
-25.081223 2.489903 -467.018982 146 115 49 
-25.141951 2.489903 -467.018982 128 108 48 
-25.204775 2.490110 -467.057800 116 102 50 
-25.267609 2.490317 -467.096619 126 108 43 
-25.330454 2.490524 -467.135437 126 124 70 
-25.393309 2.490731 -467.174286 134 137 100 
-25.454058 2.490731 -467.174286 148 126 44 
-25.514809 2.490731 -467.174286 122 106 9 
-25.575558 2.490731 -467.174286 109 110 30 
-25.634176 2.490524 -467.135437 108 119 39 
-25.690649 2.490110 -467.057800 103 116 19 
-25.747105 2.489697 -466.980194 100 113 0 
-25.803541 2.489283 -466.902588 88 120 28 
-25.859959 2.488869 -466.825043 117 130 44 
-25.914206 2.488249 -466.708740 137 138 41 
-25.970581 2.487836 -466.631226 134 144 44 
-26.026937 2.487423 -466.553772 141 148 44 
-26.087606 2.487423 -466.553772 134 150 45 
-26.146105 2.487216 -466.515015 127 145 41 
-26.206768 2.487216 -466.515015 137 141 46 
-26.267433 2.487216 -466.515015 152 141 25 
-26.325911 2.487010 -466.476318 129 137 0 
-26.386570 2.487010 -466.476318 106 134 26 
-26.447229 2.487010 -466.476318 124 136 39 
-26.507887 2.487010 -466.476318 135 138 47 
-26.568546 2.487010 -466.476318 132 142 64 
-26.626995 2.486804 -466.437592 132 146 55 
-26.687649 2.486804 -466.437592 132 143 51 
-26.748302 2.486804 -466.437592 132 140 51 
-26.811182 2.487010 -466.476318 133 142 49 
-26.871840 2.487010 -466.476318 135 141 50 
-26.932499 2.487010 -466.476318 133 141 53 
-26.995398 2.487216 -466.515015 134 142 46 
-27.058308 2.487423 -466.553772 128 138 34 
-27.118977 2.487423 -466.553772 120 140 43 
-27.179646 2.487423 -466.553772 123 141 53 
-27.240314 2.487423 -466.553772 121 140 47 
-27.300983 2.487423 -466.553772 128 142 42 
-27.361652 2.487423 -466.553772 141 143 42 
-27.422321 2.487423 -466.553772 135 139 34 
-27.482990 2.487423 -466.553772 134 140 46 
-27.541372 2.487216 -466.515015 132 144 60 
-27.602037 2.487216 -466.515015 125 143 60 
-27.662701 2.487216 -466.515015 130 141 66 
-27.725666 2.487423 -466.553772 133 143 68 
-27.786335 2.487423 -466.553772 134 144 76 
-27.849316 2.487629 -466.592499 136 144 73 
-27.912306 2.487836 -466.631226 137 146 71 
-27.975307 2.488043 -466.669983 142 146 73 
-28.038321 2.488249 -466.708740 140 144 75 
-28.106010 2.488869 -466.825043 139 144 76 
-28.180759 2.490110 -467.057800 138 146 84 
-28.253235 2.491145 -467.251953 136 145 76 
-28.328125 2.492389 -467.485168 134 138 54 
-28.386555 2.492181 -467.446289 125 138 69 
-28.447338 2.492181 -467.446289 132 142 94 
-28.508123 2.492181 -467.446289 143 137 90 
-28.781967 2.510767 -470.932343 143 136 86 
-28.843204 2.510767 -470.932343 145 144 103 
-28.899599 2.510347 -470.853424 153 156 144 
-16.423534 2.545345 -466.050812 217 222 197 
-16.485506 2.545556 -466.089447 194 195 122 
-16.546114 2.545556 -466.089447 188 186 0 
-16.605345 2.545345 -466.050812 161 181 16 
-16.665949 2.545345 -466.050812 167 174 77 
-16.725164 2.545134 -466.012146 163 178 68 
-16.784372 2.544923 -465.973511 164 179 81 
-16.844965 2.544923 -465.973511 164 179 77 
-16.905560 2.544923 -465.973511 164 178 84 
-16.964745 2.544712 -465.934875 169 177 67 
-17.023922 2.544501 -465.896271 164 176 30 
-17.083090 2.544290 -465.857635 157 169 35 
-17.143667 2.544290 -465.857635 157 164 22 
-17.202820 2.544079 -465.819031 156 164 33 
-17.261963 2.543868 -465.780426 153 161 44 
-17.321096 2.543657 -465.741821 139 157 64 
-17.381659 2.543657 -465.741821 147 160 128 
-17.443668 2.543868 -465.780426 159 171 113 
-17.505688 2.544079 -465.819031 158 176 111 
-17.570629 2.544712 -465.934875 162 176 110 
-17.632679 2.544923 -465.973511 161 175 110 
-17.694740 2.545134 -466.012146 161 175 105 
-17.756811 2.545345 -466.050812 161 176 85 
-17.833681 2.547669 -466.476318 161 173 95 
-17.910694 2.549997 -466.902588 161 172 116 
-17.971407 2.549997 -466.902588 163 176 108 
-18.032122 2.549997 -466.902588 163 176 93 
-18.095842 2.550421 -466.980194 164 173 96 
-18.158075 2.550633 -467.018982 161 173 101 
-18.220320 2.550845 -467.057800 153 177 99 
-18.282574 2.551057 -467.096619 154 175 91 
-18.343313 2.551057 -467.096619 154 172 96 
-18.404053 2.551057 -467.096619 155 177 107 
-18.509403 2.557220 -468.225159 159 174 108 
-18.570290 2.557220 -468.225159 158 171 119 
-18.629623 2.557007 -468.186157 156 172 123 
-18.693619 2.557433 -468.264160 157 166 147 
-18.754511 2.557433 -468.264160 157 171 149 
-19.246452 2.558073 -468.381256 148 163 139 
-19.310577 2.558499 -468.459320 149 150 77 
-19.373108 2.558712 -468.498383 138 149 81 
-19.434031 2.558712 -468.498383 139 145 64 
-19.494951 2.558712 -468.498383 133 142 65 
-19.554243 2.558499 -468.459320 133 149 57 
-19.611891 2.558073 -468.381256 132 151 58 
-19.671158 2.557859 -468.342224 132 149 62 
-19.732059 2.557859 -468.342224 129 152 58 
-19.791311 2.557646 -468.303192 130 152 11 
-19.852207 2.557646 -468.303192 134 147 19 
-19.911446 2.557433 -468.264160 133 141 47 
-19.969007 2.557007 -468.186157 132 140 45 
-20.026552 2.556581 -468.108154 132 141 50 
-20.080734 2.555730 -467.952240 139 142 49 
-20.139908 2.555517 -467.913300 138 142 53 
-20.199072 2.555304 -467.874329 123 143 51 
-20.258224 2.555091 -467.835388 124 143 10 
-20.317369 2.554879 -467.796448 126 142 14 
-20.374807 2.554454 -467.718597 126 143 36 
-20.435629 2.554454 -467.718597 130 143 36 
-20.496449 2.554454 -467.718597 129 143 49 
-20.557270 2.554454 -467.718597 130 144 48 
-20.618090 2.554454 -467.718597 130 147 32 
-20.678909 2.554454 -467.718597 124 149 35 
-20.739731 2.554454 -467.718597 124 146 30 
-20.800550 2.554454 -467.718597 126 145 30 
-20.863108 2.554666 -467.757507 126 152 66 
-20.923933 2.554666 -467.757507 141 156 66 
-20.984758 2.554666 -467.757507 141 162 58 
-21.045584 2.554666 -467.757507 133 164 57 
-21.104652 2.554454 -467.718597 133 165 67 
-21.165472 2.554454 -467.718597 163 166 67 
-21.226294 2.554454 -467.718597 164 159 78 
-21.287113 2.554454 -467.718597 149 157 78 
-21.347933 2.554454 -467.718597 149 152 79 
-21.408754 2.554454 -467.718597 138 151 80 
-21.469574 2.554454 -467.718597 138 156 79 
-21.530394 2.554454 -467.718597 136 152 81 
-21.591215 2.554454 -467.718597 136 140 32 
-21.652035 2.554454 -467.718597 135 135 27 
-21.712854 2.554454 -467.718597 136 142 49 
-21.773676 2.554454 -467.718597 110 143 50 
-21.834496 2.554454 -467.718597 107 135 52 
-21.895317 2.554454 -467.718597 126 137 52 
-21.956137 2.554454 -467.718597 126 151 60 
-22.016956 2.554454 -467.718597 135 148 60 
-22.077778 2.554454 -467.718597 135 137 56 
-22.138597 2.554454 -467.718597 140 142 53 
-22.199417 2.554454 -467.718597 139 156 86 
-22.260239 2.554454 -467.718597 155 162 92 
-22.321058 2.554454 -467.718597 158 162 61 
-22.381878 2.554454 -467.718597 149 158 61 
-22.442699 2.554454 -467.718597 149 148 28 
-22.503519 2.554454 -467.718597 133 144 23 
-22.564341 2.554454 -467.718597 128 144 28 
-22.623278 2.554241 -467.679657 147 144 21 
-22.684093 2.554241 -467.679657 149 153 70 
-22.746801 2.554454 -467.718597 159 161 77 
-22.807621 2.554454 -467.718597 161 163 86 
-22.868441 2.554454 -467.718597 162 165 88 
-22.929262 2.554454 -467.718597 161 166 94 
-22.991995 2.554666 -467.757507 169 163 99 
-23.052820 2.554666 -467.757507 171 162 82 
-23.111723 2.554454 -467.718597 171 164 85 
-23.172543 2.554454 -467.718597 176 156 44 
-23.233364 2.554454 -467.718597 143 145 33 
-23.294184 2.554454 -467.718597 138 133 44 
-23.355003 2.554454 -467.718597 131 125 40 
-23.417772 2.554666 -467.757507 127 123 73 
-23.478598 2.554666 -467.757507 127 130 94 
-23.541384 2.554879 -467.796448 128 131 18 
-23.604179 2.555091 -467.835388 121 119 0 
-23.666985 2.555304 -467.874329 120 115 46 
-23.727825 2.555304 -467.874329 117 115 62 
-23.790646 2.555517 -467.913300 116 109 44 
-23.851492 2.555517 -467.913300 113 103 43 
-23.912336 2.555517 -467.913300 114 99 40 
-23.973183 2.555517 -467.913300 104 96 39 
-24.034029 2.555517 -467.913300 100 97 38 
-24.090862 2.555091 -467.835388 107 97 36 
-24.149689 2.554879 -467.796448 109 101 43 
-24.206488 2.554454 -467.718597 107 104 46 
-24.265289 2.554241 -467.679657 104 105 43 
-24.322056 2.553816 -467.601837 114 102 41 
-24.378805 2.553391 -467.524048 114 103 43 
-24.429440 2.552330 -467.329651 129 111 42 
-24.488173 2.552117 -467.290802 136 113 50 
-24.548937 2.552117 -467.290802 133 113 52 
-24.605610 2.551693 -467.213104 134 111 59 
-24.664314 2.551481 -467.174286 133 108 68 
-24.720955 2.551057 -467.096619 133 105 50 
-24.781694 2.551057 -467.096619 129 105 39 
-24.840368 2.550845 -467.057800 123 106 52 
-24.901102 2.550845 -467.057800 136 113 59 
-24.959763 2.550633 -467.018982 142 121 48 
-25.020493 2.550633 -467.018982 139 119 41 
-25.081223 2.550633 -467.018982 142 117 52 
-25.144041 2.550845 -467.057800 130 112 59 
-25.206869 2.551057 -467.096619 122 106 48 
-25.269709 2.551269 -467.135437 128 105 37 
-25.330454 2.551269 -467.135437 129 117 61 
-25.393309 2.551481 -467.174286 131 128 90 
-25.456175 2.551693 -467.213104 139 116 35 
-25.514809 2.551481 -467.174286 120 107 5 
-25.575558 2.551481 -467.174286 110 113 10 
-25.634176 2.551269 -467.135437 109 117 1 
-25.690649 2.550845 -467.057800 104 116 7 
-25.747105 2.550421 -466.980194 107 120 2 
-25.801397 2.549785 -466.863800 102 128 27 
-25.853516 2.548938 -466.708740 120 133 42 
-25.909903 2.548515 -466.631226 133 137 48 
-25.966269 2.548092 -466.553772 131 143 57 
-26.026937 2.548092 -466.553772 133 148 60 
-26.085442 2.547880 -466.515015 134 151 70 
-26.146105 2.547880 -466.515015 136 150 55 
-26.206768 2.547880 -466.515015 133 143 50 
-26.267433 2.547880 -466.515015 133 136 36 
-26.325911 2.547669 -466.476318 127 136 13 
-26.386570 2.547669 -466.476318 118 137 33 
-26.447229 2.547669 -466.476318 128 139 42 
-26.507887 2.547669 -466.476318 135 141 49 
-26.566341 2.547457 -466.437592 135 147 67 
-26.626995 2.547457 -466.437592 139 152 51 
-26.687649 2.547457 -466.437592 135 144 34 
-26.748302 2.547457 -466.437592 129 138 50 
-26.811182 2.547669 -466.476318 134 141 63 
-26.871840 2.547669 -466.476318 139 143 58 
-26.934734 2.547880 -466.515015 137 144 58 
-26.997639 2.548092 -466.553772 137 145 54 
-27.060555 2.548303 -466.592499 137 142 48 
-27.125732 2.548727 -466.669983 136 141 51 
-27.186417 2.548727 -466.669983 135 144 51 
-27.247101 2.548727 -466.669983 134 146 53 
-27.305517 2.548515 -466.631226 134 145 62 
-27.366196 2.548515 -466.631226 133 145 48 
-27.426876 2.548515 -466.631226 136 146 22 
-27.487555 2.548515 -466.631226 141 143 42 
-27.548233 2.548515 -466.631226 141 145 66 
-27.608912 2.548515 -466.631226 143 147 61 
-27.669590 2.548515 -466.631226 139 148 59 
-27.730270 2.548515 -466.631226 131 151 64 
-27.790949 2.548515 -466.631226 135 150 74 
-27.858566 2.549150 -466.747498 136 148 72 
-27.916943 2.548938 -466.708740 139 149 75 
-27.984604 2.549573 -466.825043 146 150 74 
-28.045307 2.549573 -466.825043 142 150 71 
-28.110682 2.549997 -466.902588 137 147 75 
-28.180759 2.550845 -467.057800 137 149 88 
-28.248537 2.551481 -467.174286 136 151 76 
-28.318703 2.552330 -467.329651 137 146 47 
-28.381832 2.552542 -467.368530 137 143 65 
-28.440243 2.552330 -467.329651 139 140 96 
-28.503382 2.552542 -467.368530 142 134 91 
-28.777143 2.571574 -470.853424 145 135 81 
-28.838371 2.571574 -470.853424 151 145 101 
-28.899599 2.571574 -470.853424 156 161 149 
-16.484138 2.605948 -466.050812 208 224 178 
-16.544743 2.605948 -466.050812 195 200 122 
-16.603968 2.605732 -466.012146 152 184 103 
-16.664566 2.605732 -466.012146 162 175 3 
-16.723778 2.605516 -465.973511 162 172 39 
-16.784372 2.605516 -465.973511 163 175 70 
-16.844965 2.605516 -465.973511 162 177 66 
-16.904158 2.605300 -465.934875 165 178 73 
-16.964745 2.605300 -465.934875 173 178 73 
-17.023922 2.605084 -465.896271 168 179 84 
-17.083090 2.604868 -465.857635 157 176 75 
-17.143667 2.604868 -465.857635 157 168 67 
-17.204247 2.604868 -465.857635 156 165 54 
-17.263393 2.604652 -465.819031 152 162 0 
-17.322531 2.604436 -465.780426 135 159 27 
-17.383099 2.604436 -465.780426 144 159 69 
-17.443668 2.604436 -465.780426 159 161 70 
-17.505688 2.604652 -465.819031 158 171 103 
-17.567717 2.604868 -465.857635 163 175 96 
-17.631218 2.605300 -465.934875 161 173 91 
-17.693274 2.605516 -465.973511 161 172 96 
-17.755339 2.605732 -466.012146 161 175 112 
-17.815937 2.605732 -466.012146 161 175 108 
-17.894341 2.608328 -466.476318 162 172 101 
-17.955000 2.608328 -466.476318 163 171 100 
-18.021641 2.609194 -466.631226 163 172 88 
-18.085323 2.609627 -466.708740 164 169 91 
-18.150534 2.610277 -466.825043 161 168 96 
-18.211239 2.610277 -466.825043 153 169 94 
-18.267391 2.609627 -466.708740 154 168 87 
-18.328079 2.609627 -466.708740 155 168 88 
-18.384188 2.608977 -466.592499 156 171 91 
-18.444862 2.608977 -466.592499 159 170 87 
-18.568743 2.617888 -468.186157 158 166 71 
-18.629623 2.617888 -468.186157 158 165 72 
-18.690504 2.617888 -468.186157 158 160 64 
-18.751387 2.617888 -468.186157 158 159 71 
-18.812267 2.617888 -468.186157 160 164 101 
-18.871576 2.617670 -468.147156 174 170 105 
-18.932451 2.617670 -468.147156 172 177 145 
-19.118265 2.618106 -468.225159 168 177 158 
-19.180750 2.618325 -468.264160 166 172 122 
-19.244848 2.618761 -468.342224 146 152 119 
-19.307358 2.618979 -468.381256 146 144 69 
-19.371494 2.619416 -468.459320 135 148 71 
-19.432409 2.619416 -468.459320 136 145 43 
-19.493326 2.619416 -468.459320 133 143 47 
-19.550983 2.618979 -468.381256 133 148 57 
-19.610256 2.618761 -468.342224 132 150 55 
-19.671158 2.618761 -468.342224 132 147 43 
-19.732059 2.618761 -468.342224 131 145 43 
-19.791311 2.618543 -468.303192 131 147 41 
-19.850554 2.618325 -468.264160 131 145 40 
-19.909786 2.618106 -468.225159 131 141 25 
-19.969007 2.617888 -468.186157 130 138 28 
-20.026552 2.617452 -468.108154 130 139 55 
-20.080734 2.616580 -467.952240 133 137 53 
-20.138231 2.616145 -467.874329 133 137 63 
-20.197390 2.615927 -467.835388 126 142 61 
-20.256538 2.615709 -467.796448 126 143 31 
-20.313988 2.615274 -467.718597 127 144 32 
-20.374807 2.615274 -467.718597 127 146 36 
-20.435629 2.615274 -467.718597 130 144 36 
-20.496449 2.615274 -467.718597 130 143 23 
-20.557270 2.615274 -467.718597 131 143 25 
-20.618090 2.615274 -467.718597 131 144 74 
-20.678909 2.615274 -467.718597 131 154 74 
-20.739731 2.615274 -467.718597 131 156 0 
-20.800550 2.615274 -467.718597 130 152 0 
-20.861370 2.615274 -467.718597 130 154 64 
-20.922192 2.615274 -467.718597 140 162 64 
-20.983011 2.615274 -467.718597 140 165 32 
-21.043831 2.615274 -467.718597 137 163 30 
-21.104652 2.615274 -467.718597 136 161 74 
-21.165472 2.615274 -467.718597 148 156 75 
-21.226294 2.615274 -467.718597 148 157 87 
-21.287113 2.615274 -467.718597 138 151 88 
-21.347933 2.615274 -467.718597 138 148 89 
-21.408754 2.615274 -467.718597 144 152 88 
-21.469574 2.615274 -467.718597 145 159 100 
-21.530394 2.615274 -467.718597 135 152 105 
-21.591215 2.615274 -467.718597 135 135 12 
-21.652035 2.615274 -467.718597 124 131 4 
-21.712854 2.615274 -467.718597 123 133 54 
-21.773676 2.615274 -467.718597 120 135 57 
-21.834496 2.615274 -467.718597 119 134 60 
-21.895317 2.615274 -467.718597 124 141 61 
-21.956137 2.615274 -467.718597 124 148 65 
-22.016956 2.615274 -467.718597 126 137 67 
-22.077778 2.615274 -467.718597 125 133 38 
-22.138597 2.615274 -467.718597 133 142 28 
-22.199417 2.615274 -467.718597 132 148 86 
-22.260239 2.615274 -467.718597 150 157 97 
-22.321058 2.615274 -467.718597 153 157 60 
-22.380016 2.615056 -467.679657 143 151 61 
-22.440832 2.615056 -467.679657 144 149 18 
-22.501646 2.615056 -467.679657 134 145 9 
-22.562462 2.615056 -467.679657 132 142 18 
-22.623278 2.615056 -467.679657 138 140 10 
-22.685980 2.615274 -467.718597 136 144 77 
-22.746801 2.615274 -467.718597 151 152 88 
-22.807621 2.615274 -467.718597 153 159 88 
-22.868441 2.615274 -467.718597 156 163 90 
-22.929262 2.615274 -467.718597 158 160 100 
-22.991995 2.615492 -467.757507 158 156 106 
-23.052820 2.615492 -467.757507 159 154 84 
-23.113646 2.615492 -467.757507 152 155 87 
-23.172543 2.615274 -467.718597 152 152 42 
-23.235296 2.615492 -467.757507 145 140 28 
-23.296122 2.615492 -467.757507 146 132 42 
-23.356947 2.615492 -467.757507 130 123 38 
-23.419722 2.615709 -467.796448 125 130 74 
