ply
format ascii 1.0
element vertex 70
property float x
property float y
property float z
property uchar red
property uchar green
property uchar blue
end_header
8.960000 -26.470000 -475.010000 255 0 0 
3.940000 -26.170000 -474.790000 255 0 0 
-1.020000 -25.850000 -474.690000 255 0 0 
-6.050000 -25.530000 -474.370000 255 0 0 
-11.050000 -25.200000 -474.290000 255 0 0 
-16.010000 -24.880000 -474.120000 255 0 0 
-20.980000 -24.570000 -474.080000 255 0 0 
-25.910000 -24.240000 -473.750000 255 0 0 
-30.900000 -23.910000 -473.700000 255 0 0 
-35.980000 -23.570000 -473.580000 255 0 0 
9.330000 -21.620000 -473.640000 255 0 0 
4.330000 -21.310000 -473.460000 255 0 0 
-0.650000 -20.990000 -473.200000 255 0 0 
-5.670000 -20.670000 -473.220000 255 0 0 
-10.670000 -20.350000 -472.890000 255 0 0 
-15.630000 -20.030000 -472.830000 255 0 0 
-20.600000 -19.710000 -472.650000 255 0 0 
-25.540000 -19.400000 -472.510000 255 0 0 
-30.520000 -19.050000 -472.320000 255 0 0 
-35.600000 -18.720000 -472.190000 255 0 0 
9.700000 -16.790000 -472.260000 255 0 0 
4.690000 -16.470000 -472.150000 255 0 0 
-0.290000 -16.150000 -471.950000 255 0 0 
-5.300000 -15.830000 -471.640000 255 0 0 
-10.300000 -15.520000 -471.560000 255 0 0 
-15.270000 -15.200000 -471.330000 255 0 0 
-20.230000 -14.870000 -471.320000 255 0 0 
-25.160000 -14.550000 -471.090000 255 0 0 
-30.150000 -14.210000 -470.930000 255 0 0 
-35.220000 -13.880000 -470.760000 255 0 0 
10.070000 -11.960000 -470.930000 255 0 0 
5.050000 -11.650000 -470.650000 255 0 0 
0.090000 -11.340000 -470.620000 255 0 0 
-4.930000 -11.020000 -470.400000 255 0 0 
-9.930000 -10.690000 -470.140000 255 0 0 
-14.890000 -10.370000 -469.890000 255 0 0 
-19.860000 -10.040000 -469.850000 255 0 0 
-24.800000 -9.730000 -469.670000 255 0 0 
-29.770000 -9.390000 -469.540000 255 0 0 
-34.850000 -9.060000 -469.360000 255 0 0 
10.430000 -7.160000 -469.610000 255 0 0 
5.420000 -6.840000 -469.310000 255 0 0 
0.450000 -6.530000 -469.150000 255 0 0 
-4.570000 -6.200000 -469.000000 255 0 0 
-9.570000 -5.870000 -468.810000 255 0 0 
-14.540000 -5.550000 -468.560000 255 0 0 
-19.510000 -5.230000 -468.410000 255 0 0 
-24.430000 -4.900000 -468.380000 255 0 0 
-29.410000 -4.580000 -468.320000 255 0 0 
-34.490000 -4.240000 -467.900000 255 0 0 
10.790000 -2.340000 -468.170000 255 0 0 
5.780000 -2.030000 -468.030000 255 0 0 
0.810000 -1.700000 -467.780000 255 0 0 
-4.210000 -1.380000 -467.740000 255 0 0 
-9.220000 -1.060000 -467.460000 255 0 0 
-14.180000 -0.740000 -467.220000 255 0 0 
-19.130000 -0.400000 -467.160000 255 0 0 
-24.060000 -0.080000 -466.980000 255 0 0 
-29.060000 0.240000 -466.780000 255 0 0 
-34.120000 0.570000 -466.740000 255 0 0 
11.160000 2.470000 -466.950000 255 0 0 
6.150000 2.770000 -466.750000 255 0 0 
1.170000 3.100000 -466.500000 255 0 0 
-3.840000 3.420000 -466.360000 255 0 0 
-8.850000 3.740000 -466.090000 255 0 0 
-13.810000 4.070000 -466.020000 255 0 0 
-18.780000 4.400000 -465.900000 255 0 0 
-23.710000 4.720000 -465.520000 255 0 0 
-28.700000 5.050000 -465.560000 255 0 0 
-33.770000 5.390000 -465.430000 255 0 0 
