ply
format ascii 1.0
element vertex 70
property float x
property float y
property float z
property uchar red
property uchar green
property uchar blue
end_header
-56.560000 -6.620000 -456.470000 255 0 0 
-54.070000 -2.240000 -456.460000 255 0 0 
-51.630000 2.100000 -456.650000 255 0 0 
-49.150000 6.480000 -456.750000 255 0 0 
-46.680000 10.830000 -456.930000 255 0 0 
-44.220000 15.160000 -456.940000 255 0 0 
-41.760000 19.470000 -457.090000 255 0 0 
-39.320000 23.760000 -457.170000 255 0 0 
-36.870000 28.090000 -457.360000 255 0 0 
-34.370000 32.510000 -457.520000 255 0 0 
-52.430000 -8.980000 -458.270000 255 0 0 
-49.950000 -4.620000 -458.300000 255 0 0 
-47.490000 -0.270000 -458.480000 255 0 0 
-45.010000 4.100000 -458.550000 255 0 0 
-42.550000 8.460000 -458.650000 255 0 0 
-40.090000 12.780000 -458.780000 255 0 0 
-37.630000 17.110000 -458.950000 255 0 0 
-35.190000 21.400000 -459.060000 255 0 0 
-32.720000 25.740000 -459.200000 255 0 0 
-30.230000 30.130000 -459.360000 255 0 0 
-48.290000 -11.360000 -460.010000 255 0 0 
-45.800000 -6.980000 -460.130000 255 0 0 
-43.340000 -2.650000 -460.260000 255 0 0 
-40.880000 1.730000 -460.440000 255 0 0 
-38.400000 6.070000 -460.530000 255 0 0 
-35.950000 10.410000 -460.610000 255 0 0 
-33.490000 14.730000 -460.760000 255 0 0 
-31.060000 19.030000 -460.910000 255 0 0 
-28.580000 23.350000 -461.080000 255 0 0 
-26.090000 27.770000 -461.210000 255 0 0 
-44.160000 -13.730000 -461.860000 255 0 0 
-41.680000 -9.370000 -461.960000 255 0 0 
-39.230000 -5.010000 -462.050000 255 0 0 
-36.750000 -0.650000 -462.270000 255 0 0 
-34.290000 3.710000 -462.330000 255 0 0 
-31.820000 8.040000 -462.450000 255 0 0 
-29.370000 12.370000 -462.630000 255 0 0 
-26.930000 16.660000 -462.810000 255 0 0 
-24.460000 21.000000 -462.910000 255 0 0 
-21.970000 25.390000 -463.090000 255 0 0 
-40.050000 -16.100000 -463.720000 255 0 0 
-37.580000 -11.720000 -463.770000 255 0 0 
-35.120000 -7.390000 -463.910000 255 0 0 
-32.640000 -3.010000 -464.070000 255 0 0 
-30.170000 1.350000 -464.260000 255 0 0 
-27.710000 5.690000 -464.360000 255 0 0 
-25.250000 10.000000 -464.500000 255 0 0 
-22.820000 14.300000 -464.650000 255 0 0 
-20.350000 18.640000 -464.840000 255 0 0 
-17.860000 23.050000 -464.930000 255 0 0 
-35.950000 -18.440000 -465.490000 255 0 0 
-33.470000 -14.070000 -465.660000 255 0 0 
-31.010000 -9.740000 -465.780000 255 0 0 
-28.550000 -5.360000 -466.010000 255 0 0 
-26.070000 -1.000000 -466.080000 255 0 0 
-23.610000 3.330000 -466.290000 255 0 0 
-21.150000 7.660000 -466.430000 255 0 0 
-18.720000 11.950000 -466.560000 255 0 0 
-16.240000 16.290000 -466.730000 255 0 0 
-13.750000 20.700000 -466.840000 255 0 0 
-31.840000 -20.820000 -467.380000 255 0 0 
-29.360000 -16.430000 -467.430000 255 0 0 
-26.900000 -12.100000 -467.620000 255 0 0 
-24.430000 -7.720000 -467.840000 255 0 0 
-21.960000 -3.370000 -468.000000 255 0 0 
-19.500000 0.980000 -468.120000 255 0 0 
-17.040000 5.290000 -468.250000 255 0 0 
-14.610000 9.590000 -468.420000 255 0 0 
-12.130000 13.930000 -468.530000 255 0 0 
-9.640000 18.340000 -468.650000 255 0 0 
