ply
format ascii 1.0
element vertex 70
property float x
property float y
property float z
property uchar red
property uchar green
property uchar blue
end_header
6.990000 -28.010000 -477.010000 255 0 0 
1.940000 -28.240000 -477.550000 255 0 0 
-3.060000 -28.450000 -478.150000 255 0 0 
-8.140000 -28.660000 -478.510000 255 0 0 
-13.170000 -28.880000 -479.230000 255 0 0 
-18.180000 -29.090000 -479.680000 255 0 0 
-23.190000 -29.300000 -480.310000 255 0 0 
-28.170000 -29.500000 -480.810000 255 0 0 
-33.190000 -29.690000 -481.280000 255 0 0 
-38.330000 -29.900000 -481.950000 255 0 0 
6.830000 -23.190000 -475.790000 255 0 0 
1.780000 -23.410000 -476.300000 255 0 0 
-3.240000 -23.620000 -476.780000 255 0 0 
-8.290000 -23.830000 -477.310000 255 0 0 
-13.340000 -24.050000 -477.850000 255 0 0 
-18.340000 -24.240000 -478.390000 255 0 0 
-23.350000 -24.460000 -478.970000 255 0 0 
-28.340000 -24.670000 -479.410000 255 0 0 
-33.380000 -24.880000 -480.080000 255 0 0 
-38.500000 -25.070000 -480.570000 255 0 0 
6.660000 -18.380000 -474.430000 255 0 0 
1.610000 -18.590000 -474.950000 255 0 0 
-3.410000 -18.800000 -475.490000 255 0 0 
-8.470000 -19.010000 -475.900000 255 0 0 
-13.510000 -19.220000 -476.510000 255 0 0 
-18.530000 -19.440000 -477.080000 255 0 0 
-23.530000 -19.650000 -477.570000 255 0 0 
-28.520000 -19.850000 -478.210000 255 0 0 
-33.550000 -20.050000 -478.590000 255 0 0 
-38.670000 -20.260000 -479.250000 255 0 0 
6.490000 -13.580000 -473.050000 255 0 0 
1.430000 -13.790000 -473.530000 255 0 0 
-3.580000 -14.000000 -474.150000 255 0 0 
-8.640000 -14.210000 -474.570000 255 0 0 
-13.680000 -14.430000 -475.150000 255 0 0 
-18.680000 -14.640000 -475.730000 255 0 0 
-23.710000 -14.840000 -476.190000 255 0 0 
-28.690000 -15.040000 -476.750000 255 0 0 
-33.720000 -15.240000 -477.380000 255 0 0 
-38.840000 -15.450000 -477.870000 255 0 0 
6.310000 -8.780000 -471.650000 255 0 0 
1.260000 -9.000000 -472.190000 255 0 0 
-3.750000 -9.210000 -472.730000 255 0 0 
-8.820000 -9.420000 -473.240000 255 0 0 
-13.850000 -9.630000 -473.840000 255 0 0 
-18.880000 -9.840000 -474.380000 255 0 0 
-23.890000 -10.050000 -474.940000 255 0 0 
-28.870000 -10.240000 -475.440000 255 0 0 
-33.890000 -10.450000 -475.970000 255 0 0 
-39.030000 -10.650000 -476.550000 255 0 0 
6.140000 -3.990000 -470.400000 255 0 0 
1.090000 -4.200000 -470.910000 255 0 0 
-3.920000 -4.410000 -471.440000 255 0 0 
-8.980000 -4.630000 -472.010000 255 0 0 
-14.040000 -4.840000 -472.590000 255 0 0 
-19.050000 -5.040000 -473.060000 255 0 0 
-24.070000 -5.230000 -473.610000 255 0 0 
-29.050000 -5.440000 -474.190000 255 0 0 
-34.100000 -5.640000 -474.660000 255 0 0 
-39.210000 -5.860000 -475.390000 255 0 0 
5.960000 0.800000 -468.980000 255 0 0 
0.920000 0.580000 -469.550000 255 0 0 
-4.100000 0.370000 -470.110000 255 0 0 
-9.160000 0.160000 -470.630000 255 0 0 
-14.200000 -0.050000 -471.280000 255 0 0 
-19.230000 -0.250000 -471.770000 255 0 0 
-24.240000 -0.450000 -472.390000 255 0 0 
-29.220000 -0.650000 -472.790000 255 0 0 
-34.270000 -0.850000 -473.430000 255 0 0 
-39.390000 -1.060000 -473.900000 255 0 0 
