ply
format ascii 1.0
element vertex 70
property float x
property float y
property float z
property uchar red
property uchar green
property uchar blue
end_header
-8.870000 -4.470000 -458.880000 255 0 0 
-13.910000 -4.120000 -458.510000 255 0 0 
-18.910000 -3.790000 -458.090000 255 0 0 
-23.940000 -3.450000 -457.860000 255 0 0 
-28.950000 -3.120000 -457.470000 255 0 0 
-33.930000 -2.780000 -457.100000 255 0 0 
-38.890000 -2.430000 -456.810000 255 0 0 
-43.830000 -2.100000 -456.440000 255 0 0 
-48.810000 -1.780000 -456.180000 255 0 0 
-53.870000 -1.440000 -455.890000 255 0 0 
-8.580000 0.280000 -460.460000 255 0 0 
-13.610000 0.620000 -460.170000 255 0 0 
-18.610000 0.960000 -459.780000 255 0 0 
-23.640000 1.300000 -459.530000 255 0 0 
-28.650000 1.640000 -459.100000 255 0 0 
-33.630000 1.970000 -458.740000 255 0 0 
-38.600000 2.320000 -458.410000 255 0 0 
-43.540000 2.650000 -458.170000 255 0 0 
-48.520000 2.990000 -457.750000 255 0 0 
-53.570000 3.310000 -457.530000 255 0 0 
-8.280000 5.030000 -462.120000 255 0 0 
-13.330000 5.380000 -461.750000 255 0 0 
-18.320000 5.720000 -461.310000 255 0 0 
-23.340000 6.040000 -460.930000 255 0 0 
-28.350000 6.390000 -460.620000 255 0 0 
-33.330000 6.730000 -460.320000 255 0 0 
-38.300000 7.060000 -459.910000 255 0 0 
-43.230000 7.390000 -459.690000 255 0 0 
-48.210000 7.730000 -459.280000 255 0 0 
-53.270000 8.070000 -459.150000 255 0 0 
-7.990000 9.770000 -463.660000 255 0 0 
-13.030000 10.110000 -463.270000 255 0 0 
-18.010000 10.440000 -462.950000 255 0 0 
-23.050000 10.770000 -462.510000 255 0 0 
-28.050000 11.100000 -462.240000 255 0 0 
-33.030000 11.450000 -461.780000 255 0 0 
-38.000000 11.790000 -461.590000 255 0 0 
-42.940000 12.110000 -461.180000 255 0 0 
-47.910000 12.460000 -460.920000 255 0 0 
-52.970000 12.780000 -460.750000 255 0 0 
-7.700000 14.480000 -465.360000 255 0 0 
-12.730000 14.810000 -464.930000 255 0 0 
-17.720000 15.150000 -464.490000 255 0 0 
-22.750000 15.490000 -464.190000 255 0 0 
-27.760000 15.830000 -463.870000 255 0 0 
-32.740000 16.160000 -463.580000 255 0 0 
-37.700000 16.490000 -463.030000 255 0 0 
-42.630000 16.830000 -462.940000 255 0 0 
-47.610000 17.150000 -462.600000 255 0 0 
-52.680000 17.490000 -462.410000 255 0 0 
-7.400000 19.180000 -466.910000 255 0 0 
-12.430000 19.520000 -466.580000 255 0 0 
-17.430000 19.850000 -466.080000 255 0 0 
-22.460000 20.170000 -465.750000 255 0 0 
-27.460000 20.510000 -465.530000 255 0 0 
-32.440000 20.850000 -465.120000 255 0 0 
-37.410000 21.190000 -464.960000 255 0 0 
-42.330000 21.500000 -464.350000 255 0 0 
-47.310000 21.860000 -464.280000 255 0 0 
-52.380000 22.180000 -463.950000 255 0 0 
-7.110000 23.890000 -468.410000 255 0 0 
-12.140000 24.230000 -468.140000 255 0 0 
-17.120000 24.550000 -467.730000 255 0 0 
-22.160000 24.880000 -467.350000 255 0 0 
-27.160000 25.220000 -466.940000 255 0 0 
-32.140000 25.550000 -466.740000 255 0 0 
-37.100000 25.870000 -466.350000 255 0 0 
-42.030000 26.200000 -466.100000 255 0 0 
-47.010000 26.540000 -465.730000 255 0 0 
-52.070000 26.880000 -465.530000 255 0 0 
