ply
format ascii 1.0
element vertex 70
property float x
property float y
property float z
property uchar red
property uchar green
property uchar blue
end_header
-22.280000 35.840000 -458.780000 255 0 0 
-19.660000 31.560000 -458.990000 255 0 0 
-17.050000 27.320000 -459.250000 255 0 0 
-14.420000 23.030000 -459.420000 255 0 0 
-11.800000 18.760000 -459.720000 255 0 0 
-9.210000 14.520000 -460.000000 255 0 0 
-6.610000 10.270000 -460.250000 255 0 0 
-4.040000 6.060000 -460.410000 255 0 0 
-1.420000 1.790000 -460.740000 255 0 0 
1.240000 -2.530000 -460.970000 255 0 0 
-26.440000 33.330000 -459.930000 255 0 0 
-23.820000 29.050000 -460.170000 255 0 0 
-21.220000 24.810000 -460.380000 255 0 0 
-18.590000 20.530000 -460.730000 255 0 0 
-15.980000 16.260000 -460.900000 255 0 0 
-13.380000 12.010000 -461.180000 255 0 0 
-10.790000 7.770000 -461.380000 255 0 0 
-8.190000 3.540000 -461.650000 255 0 0 
-5.600000 -0.720000 -461.780000 255 0 0 
-2.940000 -5.050000 -462.140000 255 0 0 
-30.610000 30.820000 -461.190000 255 0 0 
-27.990000 26.540000 -461.340000 255 0 0 
-25.390000 22.290000 -461.640000 255 0 0 
-22.760000 18.020000 -461.820000 255 0 0 
-20.150000 13.740000 -462.080000 255 0 0 
-17.550000 9.490000 -462.250000 255 0 0 
-14.950000 5.250000 -462.610000 255 0 0 
-12.370000 1.040000 -462.820000 255 0 0 
-9.770000 -3.240000 -463.050000 255 0 0 
-7.120000 -7.550000 -463.240000 255 0 0 
-34.760000 28.330000 -462.330000 255 0 0 
-32.130000 24.040000 -462.550000 255 0 0 
-29.540000 19.810000 -462.780000 255 0 0 
-26.910000 15.510000 -463.070000 255 0 0 
-24.300000 11.260000 -463.230000 255 0 0 
-21.700000 6.990000 -463.530000 255 0 0 
-19.100000 2.750000 -463.780000 255 0 0 
-16.510000 -1.470000 -463.980000 255 0 0 
-13.920000 -5.720000 -464.190000 255 0 0 
-11.260000 -10.050000 -464.460000 255 0 0 
-38.880000 25.830000 -463.590000 255 0 0 
-36.270000 21.560000 -463.770000 255 0 0 
-33.670000 17.310000 -463.990000 255 0 0 
-31.050000 13.030000 -464.170000 255 0 0 
-28.430000 8.750000 -464.510000 255 0 0 
-25.830000 4.510000 -464.690000 255 0 0 
-23.230000 0.260000 -464.920000 255 0 0 
-20.660000 -3.950000 -465.190000 255 0 0 
-18.050000 -8.220000 -465.370000 255 0 0 
-15.400000 -12.540000 -465.630000 255 0 0 
-43.010000 23.360000 -464.730000 255 0 0 
-40.380000 19.070000 -465.020000 255 0 0 
-37.790000 14.830000 -465.160000 255 0 0 
-35.160000 10.550000 -465.520000 255 0 0 
-32.550000 6.280000 -465.680000 255 0 0 
-29.950000 2.020000 -465.890000 255 0 0 
-27.360000 -2.220000 -466.140000 255 0 0 
-24.780000 -6.440000 -466.380000 255 0 0 
-22.190000 -10.710000 -466.580000 255 0 0 
-19.520000 -15.030000 -466.850000 255 0 0 
-47.140000 20.870000 -465.980000 255 0 0 
-44.520000 16.590000 -466.120000 255 0 0 
-41.920000 12.340000 -466.390000 255 0 0 
-39.300000 8.060000 -466.610000 255 0 0 
-36.680000 3.790000 -466.840000 255 0 0 
-34.090000 -0.460000 -467.100000 255 0 0 
-31.490000 -4.710000 -467.360000 255 0 0 
-28.910000 -8.920000 -467.570000 255 0 0 
-26.310000 -13.190000 -467.730000 255 0 0 
-23.660000 -17.510000 -468.000000 255 0 0 
