ply
format ascii 1.0
element vertex 70
property float x
property float y
property float z
property uchar red
property uchar green
property uchar blue
end_header
5.880000 -31.020000 -478.990000 255 0 0 
0.860000 -31.370000 -479.350000 255 0 0 
-4.130000 -31.650000 -479.570000 255 0 0 
-9.160000 -31.990000 -480.170000 255 0 0 
-14.170000 -32.300000 -480.470000 255 0 0 
-19.150000 -32.610000 -480.810000 255 0 0 
-24.140000 -32.910000 -480.990000 255 0 0 
-29.100000 -33.230000 -481.470000 255 0 0 
-34.080000 -33.520000 -481.900000 255 0 0 
-39.180000 -33.830000 -482.230000 255 0 0 
5.600000 -26.250000 -477.580000 255 0 0 
0.590000 -26.580000 -477.940000 255 0 0 
-4.420000 -26.890000 -478.190000 255 0 0 
-9.440000 -27.190000 -478.490000 255 0 0 
-14.450000 -27.530000 -479.100000 255 0 0 
-19.440000 -27.830000 -479.250000 255 0 0 
-24.420000 -28.140000 -479.600000 255 0 0 
-29.370000 -28.450000 -479.870000 255 0 0 
-34.380000 -28.740000 -480.190000 255 0 0 
-39.460000 -29.050000 -480.740000 255 0 0 
5.310000 -21.490000 -476.030000 255 0 0 
0.280000 -21.810000 -476.290000 255 0 0 
-4.700000 -22.110000 -476.590000 255 0 0 
-9.730000 -22.440000 -476.990000 255 0 0 
-14.750000 -22.750000 -477.370000 255 0 0 
-19.730000 -23.070000 -477.740000 255 0 0 
-24.710000 -23.380000 -478.060000 255 0 0 
-29.660000 -23.680000 -478.470000 255 0 0 
-34.670000 -23.980000 -478.770000 255 0 0 
-39.760000 -24.290000 -479.130000 255 0 0 
5.020000 -16.740000 -474.390000 255 0 0 
0.000000 -17.070000 -474.820000 255 0 0 
-4.990000 -17.380000 -475.120000 255 0 0 
-10.020000 -17.700000 -475.490000 255 0 0 
-15.030000 -18.020000 -475.820000 255 0 0 
-20.010000 -18.320000 -476.170000 255 0 0 
-24.990000 -18.620000 -476.610000 255 0 0 
-29.960000 -18.930000 -476.870000 255 0 0 
-34.960000 -19.230000 -477.400000 255 0 0 
-40.050000 -19.540000 -477.810000 255 0 0 
4.730000 -12.000000 -472.880000 255 0 0 
-0.290000 -12.330000 -473.290000 255 0 0 
-5.270000 -12.640000 -473.600000 255 0 0 
-10.310000 -12.950000 -473.950000 255 0 0 
-15.310000 -13.270000 -474.510000 255 0 0 
-20.310000 -13.580000 -474.740000 255 0 0 
-25.290000 -13.890000 -475.140000 255 0 0 
-30.240000 -14.180000 -475.620000 255 0 0 
-35.240000 -14.480000 -475.820000 255 0 0 
-40.340000 -14.790000 -476.140000 255 0 0 
4.450000 -7.270000 -471.480000 255 0 0 
-0.580000 -7.580000 -471.750000 255 0 0 
-5.560000 -7.890000 -472.150000 255 0 0 
-10.580000 -8.210000 -472.710000 255 0 0 
-15.620000 -8.520000 -472.910000 255 0 0 
-20.600000 -8.830000 -473.300000 255 0 0 
-25.580000 -9.120000 -473.760000 255 0 0 
-30.530000 -9.430000 -474.120000 255 0 0 
-35.540000 -9.730000 -474.260000 255 0 0 
-40.620000 -10.050000 -474.710000 255 0 0 
4.180000 -2.530000 -470.060000 255 0 0 
-0.860000 -2.860000 -470.300000 255 0 0 
-5.850000 -3.160000 -470.630000 255 0 0 
-10.880000 -3.480000 -471.070000 255 0 0 
-15.900000 -3.790000 -471.420000 255 0 0 
-20.890000 -4.090000 -471.770000 255 0 0 
-25.870000 -4.400000 -472.120000 255 0 0 
-30.820000 -4.700000 -472.410000 255 0 0 
-35.830000 -5.000000 -472.880000 255 0 0 
-40.920000 -5.310000 -473.110000 255 0 0 
